# .PCD v0.7 - Point Cloud Data file format
VERSION 0.7
FIELDS x y z
SIZE 4 4 4
TYPE F F F
COUNT 1 1 1
WIDTH 90
HEIGHT 1
VIEWPOINT 0 0 0 1 0 0 0
POINTS 90
DATA ascii
5.1100001 -35.532001 -1.599
5.2319999 -35.583 -1.602
5.2930002 -35.612 -1.604
5.3299999 -35.104 -1.579
5.4229999 -34.973 -1.573
5.5430002 -35.021 -1.577
5.6620002 -35.060001 -1.58
5.7870002 -35.131001 -1.584
5.9099998 -35.191002 -1.5880001
5.9780002 -35.255001 -1.592
6.1040001 -35.32 -1.596
6.2179999 -35.320999 -1.597
6.3169999 -35.236 -1.594
6.3959999 -35.041 -1.585
6.4990001 -34.981998 -1.5829999
6.6090002 -34.965 -1.5829999
6.6570001 -34.917 -1.581
6.7639999 -34.884998 -1.581
6.8660002 -34.826 -1.579
6.9720001 -34.783001 -1.5779999
7.0819998 -34.765999 -1.5779999
7.1880002 -34.73 -1.577
7.2969999 -34.706001 -1.577
7.3559999 -34.716 -1.5779999
7.4629998 -34.682999 -1.5779999
7.5770001 -34.681999 -1.579
7.6869998 -34.661999 -1.579
7.8000002 -34.654999 -1.58
7.9109998 -34.640999 -1.581
8.0240002 -34.634998 -1.582
8.0819998 -34.639999 -1.582
8.1940002 -34.624001 -1.5829999
8.302 -34.598 -1.5829999
8.4230003 -34.622002 -1.586
8.5360003 -34.611 -1.586
8.6499996 -34.606998 -1.5880001
8.7600002 -34.584 -1.5880001
8.8149996 -34.574001 -1.5880001
8.9280005 -34.562 -1.589
9.1409998 -34.931 -1.609
9.1859999 -34.660999 -1.597
9.2629995 -34.511002 -1.591
9.3520002 -34.411999 -1.587
9.4619999 -34.389999 -1.587
9.5159998 -34.373001 -1.587
9.6230001 -34.341 -1.587
9.7370005 -34.332001 -1.5880001
9.8430004 -34.293999 -1.5880001
9.9460001 -34.249001 -1.587
10.057 -34.227001 -1.5880001
10.165 -34.196999 -1.5880001
10.23 -34.220001 -1.59
10.338 -34.188999 -1.59
10.582 -34.216999 -1.595
10.642 -34.035 -1.587
10.735 -33.956001 -1.585
10.841 -33.919998 -1.584
10.893 -33.898998 -1.584
11.003 -33.875999 -1.585
11.111 -33.847 -1.585
11.22 -33.82 -1.586
11.329 -33.792 -1.586
11.434 -33.751999 -1.586
11.545 -33.730999 -1.587
11.604 -33.73 -1.587
11.709 -33.693001 -1.587
11.825 -33.682999 -1.589
11.999 -33.838001 -1.599
12.133 -33.879002 -1.603
12.161 -33.623001 -1.592
12.24 -33.513 -1.5880001
12.28 -33.458 -1.586
12.384 -33.417 -1.586
12.492 -33.388 -1.586
12.601 -33.359001 -1.587
12.707 -33.321999 -1.587
12.824 -33.313 -1.589
12.926 -33.266998 -1.5880001
12.99 -33.277 -1.59
13.103 -33.256001 -1.591
13.234 -33.283001 -1.595
13.416 -33.433998 -1.605
13.512 -33.368 -1.604
13.53 -33.115002 -1.5930001
13.584 -32.950001 -1.586
13.6 -32.844002 -1.581
13.661 -32.700001 -1.576
13.743 -32.606998 -1.573
13.841 -32.554001 -1.573
13.946 -32.518002 -1.573
