# .PCD v0.7 - Point Cloud Data file format
VERSION 0.7
FIELDS x y z
SIZE 4 4 4
TYPE F F F
COUNT 1 1 1
WIDTH 277
HEIGHT 1
VIEWPOINT 0 0 0 1 0 0 0
POINTS 277
DATA ascii
-5.1220002 8.2030001 -0.98799998
-5.0650001 8.0559998 -0.96899998
-5.0019999 7.901 -0.949
-5.0229998 7.8800001 -0.94800001
-5.033 7.8670001 -0.94700003
-5.0500002 7.8400002 -0.94599998
-5.066 7.8109999 -0.94400001
-5.072 7.7659998 -0.94
-5.0890002 7.7410002 -0.93800002
-5.3429999 8.1590004 -1.423
-5.1690001 7.7550001 -0.94499999
-5.1999998 7.7480001 -0.94599998
-5.2309999 7.7680001 -0.94999999
-5.2729998 7.7779999 -0.954
-5.3660002 7.8610001 -0.96899998
-5.3920002 7.8460002 -0.96899998
-5.5 7.8699999 -0.97899997
-5.533 7.8639998 -0.98100001
-5.5710001 7.8660002 -0.98400003
-5.1479998 7.8579998 -0.77999997
-5.1339998 7.8099999 -0.77499998
-5.1570001 7.79 -0.77499998
-5.1919999 7.7909999 -0.77700001
-5.204 7.756 -0.77499998
-5.2779999 7.8119998 -0.78399998
-5.3130002 7.8119998 -0.78600001
-5.3400002 7.7989998 -0.78600001
-5.3670001 7.8119998 -0.78899997
-5.3730001 7.7690001 -0.78600001
-5.4200001 7.7839999 -0.79000002
-5.447 7.7709999 -0.79000002
-5.5300002 7.836 -0.801
-5.2160001 7.7160001 -0.99199998
-5.2420001 8.0290003 -0.33899999
-5.257 7.9970002 -0.338
-5.277 7.9720001 -0.338
-5.2969999 7.9489999 -0.33700001
-5.3379998 7.9549999 -0.33899999
-5.3909998 7.98 -0.34200001
-5.3369999 7.7810001 -0.66600001
-5.3590002 7.796 -1.011
-5.1290002 7.7480001 -0.94099998
-5.0830002 8.1560001 -0.92500001
-5.0679998 8.0760002 -0.91600001
-4.9879999 7.8920002 -0.89300001
-5.0100002 7.8709998 -0.89300001
-5.0190001 7.8590002 -0.89200002
-5.1220002 7.7870002 -0.83399999
-5.0619998 7.8169999 -0.88999999
-5.3000002 8.0380001 -1.404
-5.0900002 7.7529998 -0.88599998
-5.1069999 7.7259998 -0.884
-5.151 7.7389998 -0.889
-5.1729999 7.7199998 -0.88800001
-5.1960001 7.7280002 -0.88999999
-5.2480001 7.7529998 -0.89600003
-5.3330002 7.8270001 -0.90899998
-5.3730001 7.8309999 -0.912
-5.4400001 7.8239999 -0.91600001
-5.04 7.6230001 -1.095
-5.1739998 7.7470002 -1.1210001
-5.5139999 7.7989998 -0.91799998
-5.2519999 7.7589998 -1.128
-5.3270001 7.816 -1.141
-5.3579998 7.809 -1.142
-5.4130001 7.836 -1.15
-5.645 7.9320002 -1.1799999
-5.0570002 7.934 -0.78200001
-5.0580001 7.9320002 -0.84399998
-5.0830002 7.9159999 -0.84399998
-5.1170001 7.914 -0.84500003
-5.145 7.9029999 -0.84600002
-5.1160002 7.8049998 -0.83499998
-5.0770001 7.9109998 -0.78100002
-5.1550002 7.7839999 -0.83600003
-5.1890001 7.783 -0.838
-5.2220001 7.7779999 -0.83899999
-5.2670002 7.7930002 -0.84299999
-5.3520002 7.8649998 -0.85500002
-5.4089999 7.8940001 -0.861
-5.4060001 7.8639998 -0.85900003
-5.421 7.8319998 -0.85699999
-5.4559999 7.8299999 -0.85900003
-5.4819999 7.816 -0.85900003
-5.5170002 7.8130002 -0.861
-5.1240001 7.8740001 -0.77999997
-5.0619998 7.8709998 -0.89600003
-5.2550001 8.052 -1.275
-5.079 8.1379995 -0.801
-5.237 7.836 -1.3710001
-5.322 7.829 -1.378
-5.0349998 7.7210002 -1.107
-5.0630002 7.7810001 -1.053
-5.1040001 8.1199999 -0.801
-4.9619999 7.9169998 -0.99599999
-5.0999999 8.059 -0.79500002
-5.2849998 7.8280001 -1.374
-5.0700002 7.7940001 -1.594
-5.0929999 7.777 -1.5930001
-5.1240001 7.7709999 -1.595
-5.1430001 7.7459998 -1.594
-5.223 7.8140001 -1.612
-5.1430001 8.1230001 -0.625
-5.2989998 8.1330004 -0.514
-5.316 8.1029997 -0.51200002
-5.3369999 8.0790005 -0.51200002
-5.3649998 8.0679998 -0.51200002
-5.3670001 8.0430002 -0.51099998
-5.3909998 8.0240002 -0.51099998
-5.4239998 8.0190001 -0.51200002
-4.9959998 7.7670002 -1.109
-4.915 7.8150001 -0.98199999
-5.1680002 8.2349997 -1.222
-5.2030001 8.2320004 -1.224
-5.0100002 7.8740001 -1.165
-5.3730001 7.783 -0.72899997
-5.0050001 7.7849998 -1.154
-5.1539998 8.085 -0.62300003
-5.0489998 7.7470002 -1.153
-5.0710001 7.7259998 -1.152
-5.105 7.7249999 -1.154
-5.1370001 7.7199998 -1.156
-5.1789999 7.757 -1.164
-5.211 7.7519999 -1.166
-5.302 7.8340001 -1.184
-5.3299999 7.822 -1.184
-5.3249998 7.763 -1.177
-5.1420002 8.2040005 -0.87400001
-5.223 7.869 -1.374
-4.9429998 7.8049998 -0.98199999
-5.2659998 8.0819998 -0.39399999
-5.2820001 8.0500002 -0.39300001
-5.3039999 8.0279999 -0.39300001
-5.3280001 8.0100002 -0.39300001
-5.3559999 7.9980001 -0.39300001
-5.3889999 7.993 -0.39399999
-5.4369998 8.0089998 -0.396
-5.4510002 7.7870002 -0.91299999
-5.1149998 7.915 -0.78299999
-5.1279998 8.1750002 -0.74800003
-5.119 8.1029997 -0.741
-5.1230001 8.0539999 -0.73699999
-5.1090002 7.9770002 -0.73000002
-5.1009998 7.9099998 -0.72399998
-5.1160002 7.9070001 -0.72500002
-5.1350002 7.8800001 -0.72399998
-5.1589999 7.8639998 -0.72399998
-5.2179999 7.8449998 -0.72500002
-5.2270002 7.8049998 -0.722
-5.2600002 7.829 -0.72600001
-5.29 7.8200002 -0.727
-5.3150001 7.8039999 -0.727
-5.336 7.7820001 -0.72600001
-5.0120001 7.7399998 -1.107
-5.4050002 7.7779999 -0.73000002
-5.572 7.9619999 -0.75400001
-5.4679999 7.763 -0.73199999
-5.4710002 7.79 -0.91500002
-5.1459999 8.1859999 -1.105
-4.9949999 7.8920002 -1.061
-5.0009999 7.8470001 -1.056
-5.013 7.8109999 -1.053
-5.0479999 7.8119998 -1.0549999
-5.1420002 8.1780005 -0.62900001
-5.079 7.7800002 -1.054
-5.092 7.7449999 -1.051
-5.1300001 7.7509999 -1.0549999
-5.1659999 7.7509999 -1.057
-5.21 7.7639999 -1.062
-5.256 7.7810001 -1.067
-5.302 7.7950001 -1.072
-5.3699999 7.842 -1.0829999
-5.4320002 7.9060001 -1.095
-5.4590001 7.8920002 -1.095
-5.6490002 8.0030003 -1.122
-5.585 7.8600001 -1.101
-5.1599998 8.0389996 -0.62
-5.2680001 7.7839999 -0.66299999
-5.3990002 7.7399998 -0.66600001
-5.2789998 7.7480001 -0.66100001
-5.1700001 8.2290001 -1.291
-5.2150002 8.2419996 -1.2970001
-5.237 8.2209997 -1.296
-5.2610002 8.1450005 -1.288
-5.2779999 8.1149998 -1.285
-5.0609999 7.7080002 -1.107
-5.2659998 8.0139999 -1.271
-5.2449999 7.9260001 -1.258
-5.2610002 7.8959999 -1.256
-5.2779999 7.868 -1.2539999
-5.3070002 7.8579998 -1.255
-5.3369999 7.8499999 -1.257
-5.3899999 7.9000001 -1.268
-5.0250001 7.763 -1.153
-5.2220001 7.9330001 -1.476
-5.1849999 7.823 -1.457
-5.1960001 7.8130002 -1.457
-5.0339999 7.9499998 -0.84399998
-4.9629998 7.7820001 -0.98100001
-5.217 7.7919998 -1.456
-5.2410002 7.7729998 -1.456
-5.2870002 7.79 -1.462
-5.1789999 8.0760002 -0.56800002
-5.1919999 8.0410004 -0.56699997
-5.2270002 8.04 -0.56800002
-5.2150002 7.993 -0.56400001
-5.243 7.9819999 -0.565
-5.2550001 7.9450002 -0.56300002
-5.2680001 7.9099998 -0.56099999
-5.2930002 7.8940001 -0.56099999
-5.2810001 7.823 -0.55599999
-5.3330002 7.8470001 -0.56
-5.349 7.8439999 -0.56
-5.382 7.8379998 -0.56199998
-5.4099998 7.8260002 -0.56199998
-5.1420002 7.8309999 -1.5369999
-5.158 7.802 -1.535
-5.171 7.7950001 -1.535
-5.1950002 7.777 -1.535
-4.9699998 7.7379999 -0.977
-4.9920001 7.7189999 -0.977
-5.007 7.6900001 -0.97500002
-5.0320001 7.7020001 -0.97799999
-5.0570002 7.6869998 -0.97799999
-5.1129999 7.7199998 -0.98500001
-5.1479998 7.7189999 -0.98699999
-5.1760001 7.7090001 -0.98799998
-5.2589998 7.816 -1.3710001
-5.2870002 7.7690001 -1.003
-5.3150001 7.7839999 -1.006
-5.4990001 8.033 -1.421
-5.4949999 7.835 -1.025
-5.638 7.9860001 -1.051
-5.0710001 7.7779999 -0.88700002
-5.329 7.7179999 -0.66100001
-5.171 8.2399998 -1.179
-5.0960002 8.1020002 -0.86199999
-5.0780001 8.0930004 -0.67699999
-5.1810002 8.198 -1.175
-4.98 7.8239999 -1.115
-4.9910002 7.8179998 -1.1569999
-4.9819999 7.7989998 -1.112
-5.3920002 7.757 -0.667
-5.0890002 8.0559998 -0.67500001
-5.0890002 8.0270004 -0.67299998
-5.105 7.9959998 -0.671
-5.118 7.9619999 -0.66900003
-5.1259999 7.9190001 -0.66600001
-5.1440001 7.8930001 -0.66500002
-5.1570001 7.8579998 -0.66299999
-5.1919999 7.8569999 -0.66500002
-5.1680002 7.7940001 -0.65899998
-5.2220001 7.822 -0.66399997
-5.2389998 7.7940001 -0.662
-5.1760001 8.0080004 -0.61900002
-5.1989999 7.9879999 -0.61799997
-5.211 7.9520001 -0.616
-5.2249999 7.947 -0.61699998
-5.23 7.901 -0.61299998
-5.256 7.8860002 -0.61400002
-5.2729998 7.8579998 -0.61199999
-5.2979999 7.8410001 -0.61199999
-5.3260002 7.829 -0.61299998
-5.3369999 7.8189998 -0.61299998
-5.3670001 7.8109999 -0.61400002
-5.4089999 7.8179998 -0.616
-5.402 7.757 -0.61199999
-5.3249998 7.9180002 -1.568
-5.2690001 8.099 -0.463
-5.2649999 8.0369997 -0.45899999
-5.2750001 7.9970002 -0.45699999
-5.2979999 7.9770002 -0.45699999
-5.3080001 7.9650002 -0.456
-5.3390002 7.9569998 -0.45699999
-5.375 7.9569998 -0.45899999
-5.415 7.961 -0.46000001
-5.2030001 7.7379999 -1.122
