# .PCD v0.7 - Point Cloud Data file format
VERSION 0.7
FIELDS x y z
SIZE 4 4 4
TYPE F F F
COUNT 1 1 1
WIDTH 99
HEIGHT 1
VIEWPOINT 0 0 0 1 0 0 0
POINTS 99
DATA ascii
-15.913 -1.438 -1.369
-15.74 -1.472 -1.353
-15.738 -1.4960001 -1.353
-14.86 -1.4579999 -1.266
-14.93 -1.513 -1.274
-15.301 -1.868 -1.314
-16.111 -0.89600003 -0.796
-16.111 -0.921 -0.796
-15.926 -1.3380001 -0.78600001
-15.916 -1.387 -0.78600001
-15.01 -1.45 -0.73000002
-14.894 -1.4859999 -0.72299999
-15.287 -1.55 -0.74800003
-16.356001 -0.676 -1.112
-16.285999 -1.109 -1.109
-16.163 -1.152 -1.099
-16.291 -1.187 -1.109
-16.052 -1.22 -1.09
-16.032 -1.3710001 -1.09
-14.974 -1.448 -1.006
-14.992 -1.497 -1.008
-15.37 -1.5829999 -1.038
-15.242 -1.619 -1.029
-15.242 -1.6670001 -1.029
-16.372 -0.66900003 -1.3049999
-16.396999 -1.031 -1.309
-16.66 -1.1 -1.334
-15.835 -1.247 -1.2589999
-15.99 -1.309 -1.274
-15.906 -1.3279999 -1.266
-15.719 -1.4119999 -1.25
-14.916 -1.483 -1.177
-14.879 -1.55 -1.174
-15.203 -1.631 -1.204
-15.375 -1.796 -1.222
-15.535 -1.864 -1.237
-16.346001 -0.66799998 -1.205
-16.368999 -1.056 -1.209
-16.535 -1.119 -1.224
-15.874 -1.299 -1.168
-15.931 -1.354 -1.173
-15.862 -1.399 -1.168
-15.718 -1.485 -1.156
-14.977 -1.461 -1.0930001
-14.985 -1.4859999 -1.0930001
-15.446 -1.582 -1.1339999
-15.238 -1.6569999 -1.117
-15.248 -1.706 -1.118
-15.381 -1.77 -1.13
-16.033001 -0.921 -1.476
-16.365 -1.068 -1.512
-16.018999 -1.248 -1.477
-15.926 -1.266 -1.467
-15.835 -1.309 -1.4579999
-15.797 -1.3559999 -1.455
-15.793 -1.406 -1.455
-15.665 -1.444 -1.442
-15.661 -1.494 -1.442
-14.927 -1.472 -1.365
-15.156 -1.711 -1.392
-15.099 -1.753 -1.386
-15.105 -1.802 -1.388
-14.976 -1.443 -1.561
-14.952 -1.488 -1.559
-14.88 -1.599 -1.552
-15.883 -1.188 -0.89399999
-15.853 -1.2359999 -0.89200002
-15.817 -1.284 -0.88999999
-15.751 -1.3279999 -0.88499999
-15.737 -1.352 -0.88499999
-14.953 -1.475 -0.83200002
-15.489 -1.626 -0.86900002
-16.488001 -0.65200001 -1.63
-16.483 -0.67699999 -1.63
-16.357 -1.11 -1.619
-15.91 -1.3559999 -1.571
-15.811 -1.397 -1.561
-15.808 -1.497 -1.561
-14.996 -1.466 -1.471
-15.013 -1.516 -1.474
-14.938 -1.579 -1.466
-15.206 -1.669 -0.662
-15.128 -1.756 -0.65799999
-16.511 -0.65700001 -1.016
-16.490999 -0.708 -1.015
-15.977 -1.1390001 -0.97899997
-15.932 -1.186 -0.97600001
-15.916 -1.235 -0.97500002
-15.892 -1.283 -0.97299999
-15.956 -1.339 -0.97799999
-15.042 -1.475 -0.912
-15.486 -1.569 -0.94499999
-15.453 -1.614 -0.94300002
-15.4 -1.658 -0.94
-16.052 -0.86699998 -1.3789999
-16.031 -0.917 -1.377
-16.097 -1.251 -1.386
-15.995 -1.293 -1.376
-15.719 -1.37 -1.35
