# .PCD v0.7 - Point Cloud Data file format
VERSION 0.7
FIELDS x y z
SIZE 4 4 4
TYPE F F F
COUNT 1 1 1
WIDTH 1177
HEIGHT 1
VIEWPOINT 0 0 0 1 0 0 0
POINTS 1177
DATA ascii
-7.0149999 0.86199999 -1.3940001
-9.6529999 1.4299999 -0.99900001
-7.1409998 0.71600002 -1.148
-10.156 2.8599999 -1.55
-9.8660002 2.7460001 -1.501
-9.6300001 2.648 -1.461
-9.4119997 2.5569999 -1.423
-9.0930004 2.4560001 -1.37
-8.809 2.3499999 -1.322
-8.6110001 2.2690001 -1.289
-8.427 2.1930001 -1.257
-8.2480001 2.119 -1.227
-8.1049995 2.056 -1.202
-8.0120001 2.006 -1.186
-7.882 1.948 -1.164
-9.6660004 1.354 -0.99900001
-7.7090001 1.867 -1.1339999
-7.638 1.825 -1.122
-7.572 1.784 -1.11
-7.533 1.75 -1.103
-7.4289999 1.702 -1.085
-9.6879997 1.326 -1.001
-7.3790002 1.654 -1.075
-7.3569999 1.625 -1.071
-7.3390002 1.597 -1.067
-7.3330002 1.571 -1.0650001
-7.3280001 1.546 -1.064
-9.6780005 1.294 -0.99900001
-7.3330002 1.499 -1.063
-7.3379998 1.488 -1.063
-7.3169999 1.46 -1.059
-7.3039999 1.434 -1.057
-7.2950001 1.408 -1.054
-9.6899996 1.265 -1.0
-7.2789998 1.358 -1.05
-7.283 1.335 -1.05
-7.2870002 1.324 -1.051
-7.2870002 1.3 -1.05
-7.2600002 1.272 -1.045
-9.4820004 2.1470001 -0.46700001
-7.2719998 1.227 -1.046
-7.2789998 1.205 -1.046
-7.2680001 1.1799999 -1.044
-7.289 1.171 -1.0470001
-7.2789998 1.146 -1.045
-9.4650002 2.112 -0.465
-7.276 1.099 -1.043
-7.2620001 1.074 -1.04
-7.2610002 1.05 -1.04
-7.2800002 1.03 -1.0420001
-7.2800002 1.006 -1.0420001
-9.4370003 2.075 -0.463
-7.2750001 0.97100002 -1.04
-7.2810001 0.94800001 -1.041
-7.2729998 0.92400002 -1.039
-7.283 0.90200001 -1.04
-7.2719998 0.87699997 -1.038
-8.6870003 0.68099999 -0.87099999
-7.2820001 0.84399998 -1.039
-7.2540002 0.81699997 -1.034
-7.2189999 0.79100001 -1.028
-7.2189999 0.76800001 -1.027
-7.2119999 0.74400002 -1.026
-9.4160004 2.0079999 -0.46000001
-7.303 0.70700002 -1.04
-7.3060002 0.69599998 -1.04
-7.3239999 0.67400002 -1.0420001
-7.3239999 0.65100002 -1.0420001
-7.3280001 0.62800002 -1.0420001
-9.401 1.974 -0.45899999
-7.375 0.58499998 -1.049
-7.3730001 0.56199998 -1.049
-7.388 0.551 -1.051
-7.3870001 0.528 -1.051
-7.3850002 0.50400001 -1.05
-9.4099998 1.961 -0.45899999
-7.408 0.45899999 -1.053
-7.441 0.43799999 -1.058
-7.4460001 0.414 -1.059
-7.447 0.403 -1.059
-7.4619999 0.38 -1.061
-8.9069996 0.52899998 -0.89600003
-7.5190001 0.33500001 -1.0700001
-7.5809999 0.31400001 -1.079
-7.5879998 0.28999999 -1.08
-7.605 0.26699999 -1.0829999
-7.6040001 0.243 -1.0829999
-8.9530001 0.51800001 -0.90200001
-7.7249999 0.20999999 -1.102
-7.757 0.18700001 -1.107
-7.776 0.163 -1.11
-7.2309999 0.58999997 -1.434
-7.1469998 0.56099999 -1.415
-7.1570001 0.53899997 -1.4170001
-7.1869998 0.52899998 -1.423
-7.6129999 1.285 -0.98500001
-7.085 0.47799999 -1.401
-7.3649998 0.472 -1.461
-7.2600002 0.44299999 -1.438
-7.2859998 0.421 -1.443
-7.3070002 0.40000001 -1.447
-7.3140001 0.377 -1.449
-7.3280001 0.366 -1.451
-7.3740001 0.345 -1.461
-7.3559999 0.32100001 -1.457
-7.375 0.29899999 -1.461
-7.3990002 0.27599999 -1.466
-7.4369998 0.25400001 -1.474
-7.4899998 0.23199999 -1.485
-7.5120001 0.221 -1.49
-7.5110002 0.197 -1.489
-7.619 0.176 -1.512
-7.631 0.152 -1.515
-7.585 0.127 -1.505
-7.605 0.104 -1.5089999
-7.3839998 0.31999999 -1.187
-7.6560001 0.068000004 -1.52
-7.0570002 1.17 -1.5930001
-7.803 1.915 -1.15
-10.435 2.8110001 -0.792
-7.415 1.674 -1.082
-10.182 2.895 -1.3
-7.3270001 1.522 -1.063
-7.0510001 1.036 -1.406
-7.0139999 0.83999997 -1.393
-7.0450001 1.182 -1.41
-6.9949999 1.013 -1.572
-8.2460003 1.258 -0.86799997
-7.2820001 1.382 -1.052
-7.0320001 1.1569999 -1.406
-7.4640002 1.793 -1.587
-7.2420001 1.715 -1.535
-7.2459998 1.704 -1.535
-7.2329998 1.676 -1.531
-7.1090002 1.624 -1.502
-7.0890002 1.596 -1.4960001
-7.0710001 1.568 -1.4910001
-7.0469999 1.54 -1.484
-7.033 1.513 -1.48
-7.0209999 1.487 -1.476
-7.0 1.472 -1.471
-8.158 1.3049999 -0.91500002
-7.0089998 1.428 -1.471
-6.994 1.402 -1.466
-7.0050001 1.381 -1.4680001
-7.0029998 1.358 -1.466
-6.9809999 1.33 -1.46
-6.9920001 1.321 -1.462
-6.9829998 1.2970001 -1.459
-6.9850001 1.274 -1.459
-7.7849998 1.877 -1.595
-6.9910002 1.23 -1.4579999
-6.9949999 1.2079999 -1.4579999
-6.9959998 1.123 -1.33
-6.993 1.174 -1.457
-7.0079999 1.154 -1.459
-7.2620001 1.249 -1.045
-7.0489998 0.676 -1.396
-7.0149999 1.087 -1.4579999
-7.0120001 1.064 -1.457
-7.0209999 1.043 -1.4579999
-7.0510001 1.146 -1.59
-7.2670002 1.705 -1.479
-7.0500002 0.96799999 -1.462
-7.0159998 0.94099998 -1.454
-6.9959998 0.91600001 -1.449
-7.0619998 0.90200001 -1.4630001
-7.052 0.88999999 -1.461
-7.2709999 1.682 -1.478
-7.0209999 0.84100002 -1.452
-7.0780001 0.82499999 -1.465
-7.0279999 0.79699999 -1.4529999
-7.098 0.78299999 -1.4680001
-7.079 0.75800002 -1.4630001
-7.171 1.636 -1.455
-7.0770001 0.72399998 -1.462
-7.1469998 0.70899999 -1.477
-7.177 0.68900001 -1.483
-7.1500001 0.66399997 -1.477
-7.152 0.64099997 -1.477
-7.1420002 1.6059999 -1.448
-7.198 0.60000002 -1.4859999
-7.1409998 0.58399999 -1.473
-7.1539998 0.56199998 -1.476
-7.1659999 0.54000002 -1.478
-7.1830001 0.51899999 -1.482
-7.1669998 0.495 -1.478
-7.4219999 0.49000001 -1.534
-7.296 0.47 -1.506
-7.3340001 0.44999999 -1.5140001
-7.3530002 0.428 -1.518
-7.349 0.40400001 -1.517
-7.3559999 0.38100001 -1.518
-7.3569999 0.35800001 -1.518
-7.3930001 0.33700001 -1.526
-7.375 0.31299999 -1.522
-7.3709998 0.301 -1.521
-7.3249998 0.27599999 -1.51
-7.3579998 0.25400001 -1.517
-7.3969998 0.23199999 -1.526
-7.421 0.20999999 -1.531
-7.5 0.189 -1.549
-7.5419998 0.16599999 -1.558
-7.4949999 0.153 -1.5470001
-7.507 0.13 -1.55
-7.5679998 0.107 -1.563
-7.566 0.083999999 -1.563
-7.0489998 1.4809999 -1.423
-7.04 1.456 -1.42
-7.1420002 0.64999998 -1.416
-7.027 1.4299999 -1.416
-7.2729998 0.99400002 -1.04
-6.994 1.3890001 -1.4069999
-6.9959998 1.367 -1.4069999
-7.0580001 1.133 -1.196
-6.9959998 1.344 -1.406
-7.1500001 0.62900001 -1.4170001
-7.0029998 1.323 -1.406
-7.0359998 1.464 -1.601
-7.0089998 1.301 -1.4069999
-7.2729998 0.85399997 -1.0369999
-7.0219998 1.2690001 -1.408
-7.0689998 0.95899999 -1.408
-7.0300002 1.248 -1.409
-7.1129999 0.60299999 -1.409
-7.0209999 1.223 -1.406
-8.2259998 2.118 -0.88700002
-7.6370001 1.215 -0.98699999
-7.0320001 1.2029999 -1.408
-7.1939998 1.406 -1.1109999
-8.8310003 0.77399999 -0.72500002
-7.244 0.72399998 -1.031
-8.8140001 0.759 -0.72299999
-7.0640001 1.14 -1.4119999
-7.1989999 1.658 -1.5880001
-7.053 1.124 -1.59
-6.987 1.105 -1.395
-8.1960001 2.0829999 -0.88200003
-7.0560002 1.104 -1.41
-7.3639998 1.756 -1.631
-7.2090001 1.6950001 -1.592
-7.2319999 1.689 -1.597
-7.177 1.45 -1.11
-7.204 1.635 -1.5880001
-7.0539999 1.5319999 -1.549
-7.0190001 1.501 -1.539
-7.053 1.497 -1.5470001
-7.039 1.471 -1.543
-7.085 1.411 -1.55
-7.0890002 1.388 -1.55
-7.053 1.358 -1.541
-7.0310001 1.3430001 -1.535
-7.02 1.318 -1.531
-7.0120001 1.294 -1.529
-7.026 1.273 -1.531
-7.336 0.60500002 -1.043
-6.9879999 1.221 -1.52
-7.0120001 1.2029999 -1.525
-6.9780002 1.175 -1.516
-7.007 1.168 -1.522
-7.0289998 1.149 -1.527
-7.0599999 1.131 -1.533
-7.0380001 1.105 -1.527
-7.0710001 1.087 -1.534
-8.1669998 1.925 -0.87400001
-7.0619998 1.041 -1.53
-7.0830002 1.0319999 -1.535
-7.059 0.99199998 -1.4069999
-7.0890002 0.98799998 -1.535
-7.0999999 0.96700001 -1.5369999
-7.0549998 0.85299999 -1.582
-7.0809999 0.91900003 -1.531
-7.0819998 0.90799999 -1.531
-7.0580001 0.96899998 -1.406
-7.0900002 0.86299998 -1.531
-7.1160002 0.84399998 -1.5369999
-7.1220002 0.82200003 -1.538
-7.125 0.79900002 -1.538
-7.1370001 0.778 -1.54
-7.1409998 0.75599998 -1.54
-7.152 0.74599999 -1.543
-7.0110002 0.70899999 -1.5089999
-7.0949998 0.69499999 -1.528
-7.0640001 0.66900003 -1.521
-7.052 0.64600003 -1.517
-7.0619998 0.625 -1.5190001
-7.0560002 0.602 -1.517
-7.073 0.59200001 -1.521
-7.092 0.57099998 -1.525
-7.1269999 0.551 -1.533
-7.1609998 0.53100002 -1.54
-7.1529999 0.50800002 -1.538
-7.165 0.486 -1.54
-7.1799998 0.46399999 -1.544
-7.1880002 0.454 -1.545
-7.2150002 0.43200001 -1.551
-7.2340002 0.41100001 -1.5549999
-7.2449999 0.389 -1.558
-7.256 0.366 -1.5599999
-7.27 0.34400001 -1.563
-7.2810001 0.322 -1.5650001
-7.2680001 0.31 -1.562
-7.2870002 0.287 -1.566
-7.3299999 0.266 -1.576
-7.3470001 0.243 -1.58
-7.3470001 0.22 -1.58
-7.3579998 0.197 -1.582
-7.3699999 0.17399999 -1.585
-7.3720002 0.163 -1.585
-7.3899999 0.14 -1.589
-7.4299998 0.117 -1.598
-9.6059999 1.402 -0.93699998
-7.0159998 0.81800002 -1.393
-7.0300002 1.234 -1.589
-7.0180001 0.80699998 -1.393
-7.0359998 1.011 -1.461
-7.2550001 1.548 -1.312
-7.506 0.35800001 -1.068
-7.0409999 1.408 -1.599
-7.0320001 0.764 -1.395
-7.0370002 0.74199998 -1.395
-7.0409999 0.72000003 -1.396
-7.171 0.50599998 -1.42
-7.0430002 0.69800001 -1.396
-7.5819998 1.842 -1.386
-7.6040001 1.173 -0.98100001
-9.9960003 2.7939999 -1.625
-9.7440004 2.707 -1.58
-9.4230003 2.585 -1.523
-9.2030001 2.493 -1.483
-8.9729996 2.4000001 -1.441
-8.698 2.296 -1.392
-8.4440002 2.2 -1.346
-7.652 0.233 -1.09
-8.059 2.0580001 -1.277
-7.915 1.994 -1.251
-7.7789998 1.933 -1.227
-7.619 1.868 -1.198
-7.506 1.8150001 -1.177
-7.4450002 1.775 -1.165
-7.395 1.738 -1.156
-7.3439999 1.714 -1.146
-7.3179998 1.683 -1.141
-7.283 1.651 -1.1339999
-7.2480001 1.619 -1.127
-10.223 2.9319999 -1.161
-9.835 2.786 -1.108
-9.5600004 2.675 -1.0700001
-8.2550001 2.2780001 -0.89600003
-8.2200003 2.2409999 -0.89099997
-8.2270002 2.2149999 -0.89099997
-8.2150002 2.184 -0.88800001
-7.2069998 1.432 -1.114
-8.1949997 2.1370001 -0.884
-7.198 1.383 -1.1109999
-7.1810002 1.357 -1.107
-7.1659999 1.342 -1.104
-8.6730003 2.0179999 -0.94
-8.9659996 2.0569999 -0.977
-8.9350004 2.02 -0.972
-8.9289999 1.96 -0.97000003
-10.213 1.795 -1.127
-10.21 1.762 -1.126
-10.216 1.73 -1.126
-8.2360001 1.283 -0.86699998
-7.1479998 1.142 -1.096
-7.1440001 1.118 -1.094
-8.2299995 1.216 -0.86500001
-8.2419996 1.191 -0.866
-8.2580004 1.1670001 -0.86699998
-8.2770004 1.143 -0.87
-7.1420002 1.015 -1.091
-7.1589999 0.99400002 -1.094
-8.29 1.079 -0.87
-8.3030005 1.054 -0.87099999
-8.3719997 0.88999999 -0.87800002
-8.3990002 0.83899999 -0.88
-8.415 0.81400001 -0.88200003
-8.4440002 0.79000002 -0.88499999
-8.4420004 0.76300001 -0.88499999
-8.4469995 0.75099999 -0.88499999
-8.5640001 0.70700002 -0.89999998
-8.5430002 0.67799997 -0.89700001
-8.5450001 0.65100002 -0.89700001
-8.5530005 0.625 -0.898
-8.5600004 0.55800003 -0.898
-8.7320004 0.542 -0.92000002
-8.7650003 0.51700002 -0.92400002
-8.7919998 0.491 -0.92699999
-8.8430004 0.46599999 -0.93300003
-7.223 0.61299998 -1.097
-7.237 0.59100002 -1.099
-7.1539998 1.317 -1.102
-7.2529998 0.55800003 -1.102
-7.263 0.53600001 -1.103
-7.2800002 0.514 -1.1059999
-7.3210001 0.49399999 -1.112
-7.3379998 0.472 -1.115
-7.3540001 0.44999999 -1.117
-7.368 0.43900001 -1.119
-7.3559999 0.41499999 -1.117
-7.3649998 0.39300001 -1.119
-7.3779998 0.37 -1.12
-7.3850002 0.347 -1.1210001
-7.427 0.32600001 -1.128
-7.4850001 0.317 -1.138
-7.5250001 0.29499999 -1.145
-7.5710001 0.273 -1.152
-7.6020002 0.25 -1.1569999
-7.7690001 0.208 -1.1849999
-7.7870002 0.184 -1.188
-7.6479998 0.156 -1.165
-7.77 0.147 -1.1849999
-7.0409999 0.96399999 -1.582
-7.033 0.94 -1.579
-7.0469999 0.91900003 -1.582
-7.0440001 0.89600003 -1.58
-7.0510001 0.875 -1.581
-7.6529999 1.541 -0.99800003
-7.072 0.83200002 -1.585
-7.092 0.82300001 -1.589
-8.316 2.2739999 -0.96399999
-7.1550002 1.294 -1.101
-7.119 0.759 -1.594
-7.1420002 1.233 -1.279
-7.1469998 0.71600002 -1.6
-7.1659999 0.69599998 -1.604
-7.177 0.685 -1.6059999
-7.177 0.66299999 -1.6059999
-7.1680002 0.639 -1.603
-10.46 2.7820001 -0.72899997
-10.143 2.6819999 -0.70099998
-9.9309998 2.5929999 -0.68099999
-9.7580004 2.5150001 -0.66500002
-9.5860004 2.4400001 -0.64899999
-9.3870001 2.358 -0.63099998
-8.6879997 1.997 -0.565
-8.71 1.973 -0.56699997
-8.7089996 1.944 -0.56599998
-8.691 1.9119999 -0.56400001
-8.7080002 1.8150001 -0.56400001
-8.7189999 1.789 -0.56400001
-8.717 1.76 -0.56300002
-8.7340002 1.735 -0.56400001
-8.7469997 1.723 -0.565
-8.7419996 1.694 -0.56400001
-8.7559996 1.668 -0.565
-8.7819996 1.6440001 -0.56699997
-8.8280001 1.595 -0.56999999
-8.868 1.574 -0.57300001
-9.5170002 1.152 -0.62300003
-9.5740004 1.128 -0.62800002
-9.5600004 1.096 -0.62599999
-9.1210003 1.0039999 -0.588
-9.1020002 0.97299999 -0.58600003
-9.0719995 0.94099998 -0.583
-7.1630001 1.249 -1.101
-8.1789999 1.882 -0.93300003
-10.562 2.961 -0.94499999
-10.349 2.8659999 -0.921
-10.119 2.767 -0.89499998
-9.9870005 2.697 -0.88
-9.7539997 2.6010001 -0.85299999
-9.5710001 2.5190001 -0.833
-9.3959999 2.457 -0.81400001
-9.1850004 2.3699999 -0.79000002
-9.0360003 2.3010001 -0.773
-8.9169998 2.211 -0.759
-8.7910004 2.1500001 -0.74400002
-8.4770002 2.0439999 -0.70999998
-8.4209995 1.96 -0.70200002
-8.4759998 1.9450001 -0.70700002
-9.0810003 1.951 -0.76899999
-9.0909996 1.924 -0.76999998
-9.0270004 1.88 -0.76200002
-9.0410004 1.853 -0.76300001
-9.0469999 1.825 -0.76300001
-9.0349998 1.793 -0.76099998
-9.0699997 1.77 -0.764
-9.158 1.773 -0.773
-10.305 1.831 -0.89200002
-10.316 1.799 -0.89300001
-10.321 1.784 -0.89300001
-10.325 1.751 -0.89300001
-10.336 1.719 -0.89300001
-10.343 1.687 -0.89399999
-10.36 1.6569999 -0.89499998
-10.368 1.624 -0.89499998
-10.371 1.592 -0.89499998
-10.399 1.363 -0.89399999
-9.6370001 1.076 -0.81199998
-9.5249996 1.033 -0.80000001
-9.533 1.0190001 -0.80000001
-8.8990002 0.83700001 -0.73299998
-8.8599997 0.80500001 -0.72799999
-10.348 2.9430001 -1.0599999
-9.9449997 2.7939999 -1.0089999
-9.7559996 2.707 -0.986
-9.1520004 2.3989999 -0.90799999
-9.0120001 2.332 -0.88999999
-8.3450003 1.948 -0.80299997
-9.0869999 2.0190001 -0.88999999
-9.0869999 1.989 -0.889
-9.0760002 1.957 -0.88700002
-10.277 1.817 -1.022
-10.267 1.781 -1.02
-10.312 1.756 -1.025
-10.298 1.72 -1.023
-10.309 1.689 -1.023
-9.5790005 1.459 -0.935
-9.6000004 1.432 -0.93599999
-7.6550002 1.6160001 -1.001
-9.6040001 1.3710001 -0.93599999
-9.6199999 1.358 -0.93800002
-9.6169996 1.326 -0.93699998
-9.6309996 1.2970001 -0.93800002
-9.6520004 1.27 -0.94
-9.5410004 0.99599999 -0.92299998
-8.7609997 0.73199999 -0.82999998
-8.7419996 0.70300001 -0.82700002
-8.7119999 0.67299998 -0.82300001
-8.8400002 0.58499998 -0.83700001
-8.8400002 0.55699998 -0.83700001
-8.1409998 1.081 -0.90899998
-8.1800003 1.073 -0.91399997
-8.158 1.044 -0.91000003
-7.0380001 1.281 -1.5930001
-8.1949997 1.022 -0.91500002
-7.1350002 1.186 -1.095
-8.198 0.99599999 -0.91500002
-6.9250002 1.199 -1.636
-6.9260001 1.165 -1.635
-6.9429998 1.146 -1.6390001
-6.947 1.101 -1.638
-9.618 2.5220001 -0.77600002
-7.1300001 1.266 -1.096
-6.9949999 1.245 -1.523
-9.4040003 2.4349999 -0.75400001
-9.224 2.358 -0.73500001
-9.0579996 2.286 -0.71700001
-7.1329999 1.163 -1.094
-7.0630002 1.095 -1.2589999
-8.809 2.1500001 -0.69
-8.5640001 2.063 -0.66500002
-7.1350002 1.048 -1.091
-8.507 0.85699999 -0.954
-8.5909996 1.956 -0.66500002
-9.1300001 1.941 -0.71600002
-9.0600004 1.897 -0.70899999
-10.313 2.961 -1.369
-10.233 2.904 -1.3559999
-9.7440004 2.733 -1.28
-9.4779997 2.6270001 -1.238
-9.217 2.5250001 -1.198
-9.0139999 2.454 -1.166
-8.8360004 2.3770001 -1.138
-8.1239996 0.428 -0.99000001
-9.0670004 1.854 -0.70899999
-9.059 1.823 -0.70700002
-8.3929996 0.55400002 -0.935
-9.092 1.77 -0.70899999
-8.4589996 0.505 -0.94400001
-10.416 1.737 -0.83700001
-7.3109999 1.74 -1.49
-10.402 1.701 -0.83499998
-7.0830002 1.635 -1.368
-7.8569999 0.43799999 -1.008
-7.1300001 1.0930001 -1.091
-7.0489998 1.513 -1.6059999
-10.434 1.655 -0.83700001
-7.948 0.40599999 -1.022
-7.1170001 0.78100002 -1.594
-7.132 1.0700001 -1.091
-8.1459999 1.33 -0.91399997
-7.0349998 1.337 -1.595
-9.4940004 2.582 -1.6210001
-9.1429996 2.4560001 -1.5549999
-8.9180002 2.3670001 -1.512
-8.7270002 2.2869999 -1.476
-8.526 2.207 -1.438
-8.3129997 2.1240001 -1.398
-8.0909996 2.0550001 -1.3559999
-7.9219999 1.9859999 -1.324
-7.7080002 1.9069999 -1.284
-7.6950002 1.8789999 -1.281
-7.572 1.824 -1.257
-7.3379998 1.744 -1.2130001
-7.3169999 1.715 -1.209
-7.3039999 1.7 -1.206
-7.2600002 1.666 -1.197
-7.2579999 1.5930001 -1.194
-7.2589998 1.5700001 -1.193
-7.237 1.541 -1.188
-7.2140002 1.525 -1.183
-7.198 1.498 -1.1799999
-7.1789999 1.47 -1.175
-7.197 1.45 -1.178
-7.1570001 1.419 -1.17
-7.1620002 1.397 -1.17
-7.1529999 1.372 -1.1670001
-7.1199999 1.354 -1.161
-7.099 1.327 -1.156
-7.1110001 1.306 -1.158
-7.092 1.28 -1.154
-7.066 1.252 -1.148
-7.0700002 1.23 -1.148
-7.0679998 1.207 -1.147
-7.0619998 1.194 -1.146
-7.0739999 1.173 -1.147
-8.1029997 2.049 -1.42
-7.1079998 0.97600001 -1.265
-7.0710001 1.105 -1.145
-7.0650001 1.081 -1.143
-7.0879998 1.062 -1.147
-8.1389999 1.276 -0.912
-7.0830002 1.027 -1.145
-7.0780001 1.0039999 -1.1440001
-7.0890002 0.98199999 -1.145
-7.092 0.95999998 -1.145
-7.079 0.93599999 -1.142
-7.0999999 0.83600003 -1.1440001
-7.1240001 0.81699997 -1.147
-7.119 0.79299998 -1.146
-7.1240001 0.75999999 -1.146
-7.1440001 0.73900002 -1.149
-7.263 1.12 -1.0420001
-7.1609998 0.69599998 -1.152
-7.1630001 0.67299998 -1.152
-7.1799998 0.65200001 -1.154
-7.2789998 0.63700002 -1.1720001
-7.316 0.61699998 -1.178
-7.335 0.60699999 -1.181
-7.158 0.57099998 -1.149
-7.1750002 0.54900002 -1.152
-7.1810002 0.52700001 -1.153
-7.1859999 0.505 -1.153
-7.2080002 0.48300001 -1.1569999
-7.2290001 0.46200001 -1.16
-7.2350001 0.45100001 -1.161
-7.2519999 0.42899999 -1.164
-7.289 0.40799999 -1.17
-7.2940001 0.38499999 -1.171
-7.303 0.36300001 -1.173
-7.3200002 0.34099999 -1.175
-8.1210003 1.247 -0.90899998
-7.5180001 0.28999999 -1.21
-7.5419998 0.26699999 -1.214
-7.6370001 0.24600001 -1.2309999
-7.6360002 0.222 -1.2309999
-7.7690001 0.20100001 -1.2539999
-7.6789999 0.175 -1.238
-7.7600002 0.164 -1.252
-7.5749998 0.13699999 -1.219
-7.6919999 0.115 -1.24
-7.1079998 1.586 -1.4400001
-8.1370001 1.2359999 -0.91100001
-7.0609999 1.063 -1.531
-10.297 2.698 -0.653
-9.7959995 2.5 -0.61000001
-9.1590004 2.2290001 -0.55500001
-7.6350002 1.475 -0.99400002
-7.0120001 0.94499999 -1.3279999
-8.151 1.212 -0.912
-9.632 1.396 -0.99599999
-7.1020002 1.538 -1.436
-7.0500002 0.81599998 -1.3329999
-8.1429996 1.1849999 -0.91100001
-7.6560001 0.092 -1.52
-6.921 1.22 -1.636
-7.0609999 1.506 -1.426
-7.0050001 1.278 -1.405
-7.1420002 0.92299998 -1.089
-9.0539999 1.8660001 -0.708
-8.1660004 1.1619999 -0.91299999
-7.0749998 0.69499999 -1.335
-7.0939999 1.011 -1.5369999
-7.0949998 1.5700001 -1.62
-7.1209998 0.57599998 -1.342
-6.9949999 1.186 -1.4579999
-8.1379995 1.1059999 -0.90899998
-7.125 0.73699999 -1.595
-7.1919999 0.45699999 -1.355
-7.6479998 1.452 -0.995
-7.0219998 0.78500003 -1.393
-7.0780001 0.94099998 -1.531
-8.29 2.211 -0.958
-7.0100002 1.415 -1.4119999
-8.9840002 2.395 -1.594
-8.7069998 2.2909999 -1.539
-8.5240002 2.214 -1.503
-8.316 2.131 -1.462
-7.1479998 0.84399998 -1.089
-7.8730001 1.964 -1.375
-7.717 1.898 -1.344
-7.665 1.873 -1.3329999
-7.4780002 1.801 -1.2970001
-7.2589998 1.592 -1.249
-7.2340002 1.562 -1.243
-7.2540002 1.543 -1.2460001
-7.2449999 1.517 -1.243
-7.21 1.4859999 -1.2359999
-7.2389998 1.4680001 -1.24
-7.2069998 1.438 -1.233
-7.1919999 1.423 -1.23
-7.1620002 1.3940001 -1.224
-7.1719999 1.372 -1.225
-7.1529999 1.345 -1.22
-7.151 1.322 -1.219
-7.1669998 1.302 -1.221
-7.1129999 1.268 -1.211
-7.073 1.25 -1.2029999
-7.059 1.201 -1.199
-7.0469999 1.177 -1.196
-6.921 1.133 -1.171
-7.7360001 0.68800002 -0.99199998
-7.0640001 1.123 -1.197
-7.1020002 1.1059999 -1.204
-7.118 1.085 -1.206
-7.1329999 1.0650001 -1.2079999
-7.1550002 1.045 -1.212
-8.2390003 2.118 -1.309
-7.1680002 1.001 -1.2130001
-7.1589999 0.977 -1.211
-7.1680002 0.96700001 -1.212
-7.3779998 0.214 -1.391
-7.059 0.90700001 -1.191
-7.0209999 0.87900001 -1.183
-7.0539999 0.81599998 -1.188
-7.1139998 0.81199998 -1.199
-7.1209998 0.79000002 -1.199
-7.3769999 0.19 -1.391
-7.0630002 0.73799998 -1.188
-7.1729999 0.727 -1.2079999
-7.1950002 0.70700002 -1.211
-7.1659999 0.68099999 -1.205
-7.1919999 0.67199999 -1.21
-7.1799998 0.64899999 -1.2079999
-7.237 0.63099998 -1.2180001
-7.263 0.61000001 -1.222
-7.2589998 0.58700001 -1.221
-7.2509999 0.56300002 -1.219
-7.2519999 0.54100001 -1.219
-7.277 0.53100002 -1.224
-7.2529998 0.50599998 -1.219
-7.2470002 0.48300001 -1.217
-7.2459998 0.46000001 -1.217
-7.2550001 0.43799999 -1.219
-7.2719998 0.41600001 -1.221
-7.2680001 0.39300001 -1.22
-7.276 0.382 -1.222
-7.4910002 0.347 -1.261
-7.3499999 0.31600001 -1.235
-7.5749998 0.303 -1.276
-7.5599999 0.27900001 -1.273
-7.546 0.25400001 -1.271
-7.573 0.243 -1.276
-7.5960002 0.22 -1.28
-7.6339998 0.198 -1.2869999
-7.7129998 0.176 -1.301
-7.6859999 0.15099999 -1.296
-7.6370001 0.126 -1.2869999
-7.6259999 0.101 -1.285
-7.1040001 0.88800001 -1.535
-7.191 0.67799997 -1.0930001
-6.987 1.252 -1.4579999
-7.6440001 1.5140001 -0.99599999
-7.2199998 1.589 -1.1210001
-7.0580001 0.73299998 -1.4579999
-7.204 1.562 -1.118
-7.2030001 1.538 -1.117
-7.6599998 1.4299999 -0.99599999
-7.2150002 1.528 -1.119
-7.098 1.561 -1.436
-7.1950002 1.5 -1.114
-7.631 1.499 -0.99400002
-7.1919999 1.476 -1.113
-7.184 1.392 -1.2920001
-7.02 0.86299998 -1.4529999
-8.1990004 2.152 -0.88499999
-10.351 2.6789999 -0.58600003
-10.135 2.5899999 -0.56900001
-9.934 2.506 -0.55299997
-9.7559996 2.4449999 -0.54000002
-9.5719995 2.3670001 -0.52499998
-9.4139996 2.2969999 -0.51200002
-9.2989998 2.2390001 -0.50300002
-9.2049999 2.1860001 -0.49599999
-9.1269999 2.1370001 -0.48899999
-9.0710001 2.0940001 -0.484
-9.1479998 2.0969999 -0.49000001
-9.1409998 2.0650001 -0.48899999
-9.1379995 2.0339999 -0.48800001
-9.1420002 2.0050001 -0.48800001
-9.1330004 1.973 -0.48699999
-9.1370001 1.944 -0.48699999
-9.1300001 1.9119999 -0.486
-9.1129999 1.8940001 -0.484
-9.1350002 1.868 -0.48500001
-9.125 1.837 -0.484
-9.1269999 1.807 -0.484
-9.1129999 1.775 -0.48199999
-9.1219997 1.747 -0.48300001
-9.1289997 1.719 -0.48300001
-9.1199999 1.702 -0.48199999
-9.1300001 1.674 -0.48199999
-9.1210003 1.643 -0.48100001
-9.1260004 1.614 -0.48100001
-9.1309996 1.586 -0.48100001
-9.1300001 1.556 -0.48100001
-9.1490002 1.53 -0.48199999
-9.1420002 1.499 -0.48100001
-9.1459999 1.485 -0.48100001
-9.1719999 1.459 -0.48300001
-9.1630001 1.429 -0.48199999
-9.1829996 1.402 -0.48300001
-9.1660004 1.37 -0.48100001
-9.2019997 1.346 -0.484
-9.2019997 1.316 -0.48300001
-9.2159996 1.303 -0.484
-9.2440004 1.278 -0.486
-9.2399998 1.248 -0.48500001
-9.2519999 1.22 -0.486
-9.2790003 1.194 -0.48800001
-9.2969999 1.166 -0.48899999
-9.2939997 1.136 -0.48800001
-9.3240004 1.125 -0.49000001
-9.335 1.096 -0.491
-9.3739996 1.071 -0.49399999
-9.8760004 2.796 -1.1849999
-9.6400003 2.697 -1.151
-9.6359997 1.381 -0.99599999
-8.302 2.2420001 -0.96100003
-7.145 1.222 -1.097
-8.2950001 2.184 -0.958
-8.2810001 2.1670001 -0.95499998
-8.2819996 2.1389999 -0.95499998
-8.467 2.158 -0.97899997
-8.408 2.115 -0.97000003
-8.3730001 2.079 -0.96399999
-8.2440004 2.02 -0.94599998
-8.1750002 1.908 -0.93300003
-10.294 2.957 -1.443
-10.052 2.852 -1.403
-9.7060003 2.72 -1.347
-9.368 2.5929999 -1.291
-9.1009998 2.487 -1.248
-8.8760004 2.395 -1.211
-8.6990004 2.3180001 -1.182
-8.5340004 2.2590001 -1.155
-7.7309999 1.722 -1.016
-8.1440001 1.133 -0.91000003
-7.6739998 1.595 -1.003
-7.677 1.571 -1.003
-10.596 2.901 -0.87900001
-10.261 2.7750001 -0.84399998
-9.9849997 2.684 -0.815
-9.7580004 2.5910001 -0.79100001
-8.1890001 0.96899998 -0.91299999
-8.2019997 0.94499999 -0.91500002
-8.2309999 0.92199999 -0.91799998
-8.2220001 0.90799999 -0.917
-8.2779999 0.88700002 -0.92400002
-8.4449997 0.87800002 -0.94599998
-8.54 1.972 -0.66100001
-8.6350002 0.84200001 -0.97100002
-8.3990002 0.79299998 -0.93900001
-8.3050003 0.75800002 -0.926
-8.3009996 0.73199999 -0.92500001
-8.3780003 0.59299999 -0.93400002
-8.3780003 0.56599998 -0.93300003
-9.0629997 1.794 -0.70700002
-8.3979998 0.528 -0.93599999
-7.7930002 0.56999999 -0.99900001
-7.7919998 0.53299999 -0.99900001
-7.835 0.51099998 -1.005
-10.425 1.671 -0.83700001
-7.8979998 0.41600001 -1.0140001
-9.6660004 1.133 -0.75599998
-9.5839996 1.094 -0.74699998
-9.5539999 1.0599999 -0.74400002
-9.5509996 1.029 -0.74299997
-8.96 0.88200003 -0.68400002
-8.9359999 0.86500001 -0.68099999
-8.9029999 0.83399999 -0.67799997
-8.8879995 0.80400002 -0.676
-7.631 1.399 -0.991
-7.1230001 1.035 -1.089
-8.2799997 1.117 -0.87
-7.0079999 1.45 -1.472
-8.2880001 1.092 -0.87
-7.1269999 0.96700001 -1.0880001
-7.2010002 0.65600002 -1.094
-7.013 1.132 -1.46
-7.1370001 0.94499999 -1.089
-7.6420002 1.377 -0.99199998
-7.145 0.85600001 -1.2690001
-7.1009998 0.66900003 -1.4069999
-7.1409998 0.89999998 -1.089
-7.1329999 0.88800001 -1.087
-7.0380001 1.258 -1.592
-7.1360002 0.86500001 -1.087
-7.217 0.63499999 -1.097
-7.0089998 1.109 -1.4579999
-8.6870003 2.266 -1.614
-8.4440002 2.175 -1.564
-8.2589998 2.1140001 -1.526
-8.0869999 2.043 -1.49
-7.8800001 1.965 -1.448
-7.7620001 1.911 -1.423
-7.1570001 0.82200003 -1.09
-7.3319998 1.758 -1.335
-7.2670002 1.7180001 -1.321
-7.171 1.589 -1.298
-7.2319999 1.579 -1.309
-7.2810001 1.5650001 -1.317
-7.1339998 0.79699999 -1.085
-7.223 1.517 -1.3049999
-7.1529999 1.479 -1.29
-7.1880002 1.4630001 -1.296
-7.197 1.441 -1.2970001
-7.184 1.415 -1.293
-7.1669998 0.778 -1.091
-7.0510001 1.355 -1.266
-7.2220001 1.34 -1.298
-7.2129998 1.3150001 -1.295
-7.1669998 1.284 -1.285
-7.1799998 1.263 -1.2869999
-7.1680002 0.755 -1.09
-7.105 1.216 -1.271
-7.0370002 1.181 -1.257
-7.0409999 1.159 -1.257
-7.0599999 1.14 -1.26
-7.0539999 1.1160001 -1.258
-7.1750002 0.745 -1.091
-7.105 1.0779999 -1.267
-7.1030002 1.0549999 -1.266
-7.0999999 1.043 -1.265
-7.0780001 1.018 -1.26
-7.0289998 0.98799998 -1.25
-7.1789999 0.722 -1.092
-7.0970001 0.95200002 -1.262
-7.1329999 0.93400002 -1.268
-7.1269999 0.91000003 -1.267
-7.1079998 0.89700001 -1.263
-7.1290002 0.87599999 -1.266
-7.1810002 0.69999999 -1.092
-7.1240001 0.83099997 -1.2640001
-7.1560001 0.81099999 -1.27
-7.1880002 0.792 -1.276
-7.1609998 0.76599997 -1.27
-7.1820002 0.75700003 -1.274
-7.1469998 0.73100001 -1.267
-7.2649999 0.71899998 -1.289
-7.302 0.69999999 -1.296
-7.2849998 0.67500001 -1.2920001
-7.2670002 0.65100002 -1.288
-7.2750001 0.62800002 -1.289
-7.243 0.61400002 -1.283
-7.2059999 0.588 -1.275
-7.2470002 0.56900001 -1.283
-7.2820001 0.54799998 -1.289
-7.3130002 0.52700001 -1.295
-7.3239999 0.505 -1.2970001
-7.3470001 0.48300001 -1.301
-7.3169999 0.47 -1.295
-7.2969999 0.44600001 -1.291
-7.2979999 0.42300001 -1.291
-7.2989998 0.40000001 -1.291
-7.3670001 0.38 -1.304
-7.46 0.361 -1.322
-7.4299998 0.336 -1.316
-7.4060001 0.31200001 -1.311
-6.9879999 1.408 -1.587
-7.0229998 1.0319999 -1.4579999
-7.2379999 0.579 -1.099
-10.372 1.83 -0.83399999
-7.0229998 1.381 -1.594
-7.0599999 1.539 -1.61
-7.0289998 1.4400001 -1.598
-7.6170001 1.261 -0.98500001
-7.0219998 1.312 -1.59
-7.0359998 1.2920001 -1.5930001
-10.502 3.006 -1.142
-10.079 2.8510001 -1.087
-9.7670002 2.7309999 -1.046
-8.3299999 1.943 -0.85100001
-8.9899998 2.0650001 -0.93300003
-9.0550003 2.0650001 -0.94099998
-9.0830002 2.0409999 -0.94400001
-9.1040001 1.956 -0.94400001
-9.1389999 1.933 -0.94800001
-10.302 1.807 -1.085
-10.311 1.775 -1.085
-10.319 1.743 -1.086
-10.332 1.712 -1.086
-10.348 2.6389999 -0.53299999
-10.09 2.5380001 -0.514
-9.8769999 2.451 -0.498
-9.757 2.3889999 -0.48899999
-9.6420002 2.3280001 -0.47999999
-9.6110001 2.2880001 -0.47799999
-9.5469999 2.21 -0.472
-9.5120001 2.1860001 -0.46900001
-9.5900002 0.99299997 -0.98400003
-8.6599998 0.72100002 -0.86799997
-8.665 0.70700002 -0.86799997
-9.4350004 2.043 -0.46200001
-8.6870003 0.65399998 -0.87
-8.7130003 0.62800002 -0.87300003
-8.8809996 0.55599999 -0.89300001
-9.375 1.923 -0.456
-9.3909998 1.895 -0.45699999
-9.3769999 1.862 -0.456
-9.3830004 1.832 -0.456
-9.3400002 1.793 -0.45199999
-9.3610001 1.767 -0.45300001
-9.3699999 1.753 -0.454
-9.3360004 1.716 -0.45100001
-9.3610001 1.691 -0.45199999
-9.3610001 1.63 -0.45199999
-9.3610001 1.6 -0.45100001
-9.3780003 1.497 -0.45100001
-9.3879995 1.4680001 -0.45199999
-9.3990002 1.4400001 -0.45199999
-9.3929996 1.408 -0.45100001
-9.4200001 1.367 -0.45300001
-9.4300003 1.3380001 -0.45300001
-9.4300003 1.308 -0.45300001
-9.4219999 1.277 -0.45199999
-9.4779997 1.2539999 -0.456
-9.4720001 1.223 -0.45500001
-9.4969997 1.196 -0.456
-9.4770002 1.163 -0.45500001
-7.0549998 1.113 -1.59
-7.0440001 1.08 -1.406
-6.9949999 1.08 -1.575
-6.9920001 1.058 -1.573
-7.1389999 0.76899999 -1.202
-7.0050001 1.0369999 -1.576
-7.6170001 1.151 -0.98299998
-7.1279998 0.616 -1.471
-7.0310001 0.99599999 -1.58
-7.0489998 1.058 -1.4069999
-7.0430002 0.97500002 -1.582
-7.02 1.357 -1.592
-8.2399998 1.244 -0.86699998
-7.6030002 1.1 -0.97899997
-10.346 2.925 -0.99299997
-10.139 2.3239999 -0.954
-10.14 2.2909999 -0.95300001
-10.157 2.2609999 -0.954
-10.19 2.2349999 -0.95700002
-9.1540003 1.9349999 -0.838
-9.2110004 1.796 -0.84100002
-9.2150002 1.7819999 -0.84100002
-10.335 1.8279999 -0.96399999
-10.35 1.7970001 -0.96499997
-10.347 1.78 -0.96499997
-10.357 1.748 -0.96499997
-10.38 1.7180001 -0.96700001
-10.381 1.6849999 -0.96700001
-10.402 1.655 -0.96799999
-10.417 1.623 -0.97000003
-10.42 1.59 -0.96899998
-10.447 1.3430001 -0.96799999
-9.6000004 1.038 -0.87099999
-9.5959997 1.022 -0.87099999
-8.8520002 0.76300001 -0.78600001
-7.2789998 0.336 -1.372
-7.6339998 0.97000003 -0.98100001
-7.0830002 0.80000001 -1.587
-7.073 1.016 -1.41
-7.1350002 1.198 -1.095
-7.632 1.35 -0.99000001
-8.2290001 2.0810001 -1.618
-7.96 1.9859999 -1.5599999
-7.7880001 1.916 -1.522
-7.5619998 1.847 -1.474
-7.2179999 1.738 -1.4
-7.2010002 1.71 -1.395
-7.6719999 0.81599998 -0.98400003
-6.9910002 1.5549999 -1.346
-6.9920001 1.5319999 -1.345
-6.974 1.505 -1.34
-6.9689999 1.4809999 -1.3380001
-6.9489999 1.454 -1.3329999
-6.9720001 1.436 -1.337
-6.954 1.41 -1.332
-6.9349999 1.383 -1.3279999
-6.9580002 1.376 -1.332
-6.9400001 1.35 -1.327
-6.9629998 1.332 -1.331
-6.973 1.311 -1.332
-6.9559999 1.285 -1.3279999
-6.9699998 1.265 -1.33
-6.9749999 1.244 -1.33
-6.973 1.232 -1.33
-6.9889998 1.212 -1.332
-7.0240002 1.196 -1.3380001
-6.9850001 1.166 -1.33
-6.9959998 1.146 -1.331
-7.1570001 1.023 -1.211
-6.9990001 1.101 -1.33
-7.0279999 1.094 -1.336
-7.0180001 1.0700001 -1.3329999
-7.0349998 1.05 -1.336
-7.0339999 1.027 -1.335
-7.0409999 1.006 -1.336
-7.0209999 0.98000002 -1.331
-7.0149999 0.95700002 -1.329
-7.1989999 0.61900002 -1.61
-7.0250001 0.92500001 -1.33
-7.0300002 0.903 -1.331
-7.0339999 0.88099998 -1.331
-7.0250001 0.85699999 -1.329
-7.0339999 0.83600003 -1.33
-7.164 0.59299999 -1.601
-7.0419998 0.80299997 -1.331
-7.0440001 0.78100002 -1.331
-7.0599999 0.76099998 -1.334
-7.039 0.736 -1.329
-7.0430002 0.71399999 -1.329
-7.1700001 0.57099998 -1.602
-7.0630002 0.671 -1.332
-7.112 0.65399998 -1.342
-7.105 0.64200002 -1.34
-7.1040001 0.61900002 -1.34
-7.1090002 0.597 -1.34
-7.1599998 0.54799998 -1.599
-7.1269999 0.55299997 -1.3430001
-7.1440001 0.53200001 -1.346
-7.1609998 0.51099998 -1.35
-7.1500001 0.49900001 -1.347
-7.2080002 0.47999999 -1.359
-7.1550002 0.53600001 -1.598
-7.1880002 0.43399999 -1.354
-7.2150002 0.41299999 -1.359
-7.2319999 0.391 -1.363
-7.237 0.368 -1.363
-7.2550001 0.35800001 -1.367
-7.1739998 0.51499999 -1.602
-7.2800002 0.31299999 -1.372
-7.303 0.29100001 -1.376
-7.323 0.26899999 -1.38
-7.322 0.24600001 -1.38
-7.3429999 0.22400001 -1.3839999
-7.197 0.49399999 -1.607
-7.4060001 0.48199999 -1.053
-7.4029999 0.168 -1.396
-7.427 0.145 -1.401
-7.4530001 0.122 -1.406
-7.4780002 0.098999999 -1.411
-7.1939998 0.47099999 -1.6059999
-7.2210002 0.44999999 -1.612
-7.2030001 0.426 -1.608
-7.2280002 0.405 -1.613
-7.223 0.39300001 -1.612
-7.0830002 1.152 -1.148
-7.02 0.93000001 -1.396
-7.2220001 0.37 -1.6109999
-7.0770001 1.128 -1.147
-7.2480001 0.34900001 -1.617
-7.046 1.489 -1.604
-7.2589998 0.32699999 -1.62
-7.2600002 0.30399999 -1.62
-7.2859998 0.28200001 -1.626
-7.0970001 1.04 -1.148
-7.0 0.90499997 -1.391
-7.3080001 0.25999999 -1.631
-10.335 1.507 -0.44400001
-7.316 0.249 -1.633
-7.6290002 1.337 -0.98900002
-7.027 0.92500001 -1.1849999
-7.0380001 1.212 -1.59
-7.0040002 0.88300002 -1.392
-7.053 1.192 -1.5930001
-9.6169996 1.456 -0.995
