# .PCD v0.7 - Point Cloud Data file format
VERSION 0.7
FIELDS x y z
SIZE 4 4 4
TYPE F F F
COUNT 1 1 1
WIDTH 166
HEIGHT 1
VIEWPOINT 0 0 0 1 0 0 0
POINTS 166
DATA ascii
-14.214 -1.869 -1.2079999
-14.221 -1.916 -1.209
-13.822 -2.1029999 -0.829
-14.19 -2.0250001 -1.2079999
-13.863 -2.0220001 -1.176
-13.744 -2.049 -1.165
-13.673 -2.082 -1.158
-13.609 -2.1159999 -1.153
-13.533 -2.1259999 -1.145
-13.648 -2.188 -1.1569999
-13.629 -2.2290001 -1.156
-13.546 -2.2590001 -1.149
-13.229 -2.2909999 -1.118
-13.118 -2.3139999 -1.108
-14.316 -2.8299999 -1.233
-13.903 -2.7709999 -1.192
-13.976 -2.8310001 -1.2
-13.81 -2.888 -1.186
-13.393 -2.9979999 -1.148
-13.339 -3.03 -1.143
-14.089 -2.9449999 -0.85900003
-13.243 -3.095 -1.136
-13.08 -3.253 -1.124
-13.955 -3.1689999 -0.85299999
-13.527 -3.1159999 -0.82099998
-13.389 -3.128 -0.81199998
-13.397 -3.175 -0.81300002
-14.337 -2.092 -0.69400001
-14.147 -1.973 -1.2029999
-13.892 -2.1370001 -0.83399999
-14.114 -2.79 -0.68699998
-14.107 -2.835 -0.68699998
-13.309 -2.99 -1.224
-14.167 -2.049 -0.94700003
-13.754 -2.0780001 -0.91500002
-13.751 -2.122 -0.91500002
-13.857 -2.1830001 -0.92400002
-13.585 -2.1619999 -0.90200001
-13.545 -2.2 -0.89999998
-13.542 -2.243 -0.89999998
-13.57 -2.2909999 -0.903
-13.708 -2.079 -1.574
-13.717 -2.125 -1.576
-13.575 -2.2119999 -1.5599999
-13.04 -2.358 -1.4960001
-13.92 -2.651 -1.613
-13.441 -2.714 -1.554
-13.343 -2.7379999 -1.543
-13.341 -2.957 -1.548
-13.797 -2.9130001 -0.93000001
-13.827 -2.964 -0.93300003
-13.445 -3.0829999 -0.90600002
-14.223 -2.05 -1.12
-14.177 -2.066 -1.1160001
-14.06 -2.0940001 -1.1059999
-13.708 -2.0869999 -1.074
-13.541 -2.1919999 -1.0599999
-13.534 -2.2349999 -1.0599999
-13.262 -2.2980001 -1.036
-13.261 -2.3399999 -1.0369999
-13.452 -2.4170001 -1.0549999
-14.046 -2.8199999 -1.1160001
-13.94 -2.8440001 -1.107
-13.968 -2.8959999 -1.11
-12.902 -3.2309999 -1.022
-13.282 -3.039 -1.051
-13.278 -3.082 -1.052
-13.2 -3.086 -1.045
-13.12 -3.1110001 -1.038
-12.995 -3.211 -1.029
-14.376 -1.723 -1.5779999
-13.781 -2.0910001 -1.512
-13.845 -2.1459999 -1.521
-13.762 -2.177 -1.511
-13.737 -2.217 -1.5089999
-13.667 -2.25 -1.501
-13.414 -2.2939999 -1.472
-13.399 -2.313 -1.47
-13.097 -2.388 -1.4349999
-13.6 -2.858 -1.507
-13.446 -2.98 -1.492
-13.924 -2.0899999 -1.0089999
-13.663 -2.0940001 -0.98699999
-13.666 -2.1830001 -0.98900002
-13.608 -2.2390001 -0.98500001
-13.597 -2.2809999 -0.98400003
-13.59 -2.3239999 -0.98400003
-13.61 -2.3710001 -0.98699999
-12.873 -3.267 -1.02
-13.981 -2.892 -1.026
-13.377 -3.0079999 -0.97799999
-13.403 -3.0580001 -0.98100001
-13.315 -3.082 -0.97399998
-13.286 -3.119 -0.972
-13.009 -3.1830001 -0.94999999
-13.24 -3.2620001 -0.97100002
-13.057 -3.2609999 -0.95599997
-13.165 -3.1110001 -1.212
-14.252 -2.066 -1.303
-13.784 -2.0869999 -1.255
-13.748 -2.1259999 -1.252
-13.924 -2.198 -1.271
-14.108 -2.2720001 -1.291
-13.643 -2.22 -1.242
-13.406 -2.2249999 -1.2180001
-13.42 -2.2709999 -1.22
-13.454 -2.3199999 -1.225
-13.12 -2.348 -1.191
-13.117 -2.3900001 -1.191
-14.286 -2.809 -1.319
-13.817 -2.763 -1.27
-14.034 -2.852 -1.295
-13.472 -2.9820001 -1.24
-13.74 -2.0710001 -1.427
-13.727 -2.0910001 -1.426
-13.785 -2.1440001 -1.433
-13.692 -2.174 -1.423
-13.595 -2.2019999 -1.4119999
-13.492 -2.2290001 -1.401
-13.381 -2.2539999 -1.3890001
-13.383 -2.2980001 -1.39
-13.286 -2.346 -1.38
-13.228 -2.3789999 -1.374
-12.955 -2.372 -1.342
-13.07 -2.4360001 -1.357
-14.393 -2.773 -1.516
-13.571 -2.8599999 -1.424
-13.352 -2.858 -1.399
-13.434 -2.9419999 -1.41
-13.446 -2.9890001 -1.413
-13.386 -3.02 -1.4069999
-13.115 -3.0020001 -1.375
-13.127 -3.049 -1.378
-13.175 -3.1029999 -1.385
-13.127 -3.201 -1.382
-13.751 -2.0829999 -0.755
-13.735 -2.1240001 -0.75400001
-14.329 -1.696 -1.401
-14.472 -2.0599999 -1.421
-14.325 -2.062 -1.405
-13.799 -2.0739999 -1.348
-13.802 -2.119 -1.349
-14.243 -2.233 -1.399
-14.15 -2.2639999 -1.39
-13.731 -2.24 -1.3430001
-14.12 -2.3729999 -1.388
-13.056 -2.3610001 -1.272
-13.151 -2.421 -1.283
-14.167 -2.7260001 -1.4
-12.762 -2.494 -1.242
-12.678 -2.5190001 -1.234
-12.618 -2.5480001 -1.228
-12.544 -2.5739999 -1.22
-14.213 -3.145 -0.79900002
-12.446 -2.615 -1.211
-12.403 -2.6470001 -1.207
-12.305 -2.6659999 -1.197
-13.182 -3.0320001 -1.3
-12.904 -3.2030001 -1.275
-14.037 -3.0139999 -0.78600001
-14.031 -3.059 -0.78600001
-12.489 -2.6040001 -1.215
-12.847 -3.207 -1.182
-12.833 -3.1730001 -1.348
-13.406 -2.3789999 -1.637
-13.192 -2.3829999 -1.609
