# .PCD v0.7 - Point Cloud Data file format
VERSION 0.7
FIELDS x y z
SIZE 4 4 4
TYPE F F F
COUNT 1 1 1
WIDTH 136
HEIGHT 1
VIEWPOINT 0 0 0 1 0 0 0
POINTS 136
DATA ascii
-1.039 -27.313 -1.488
-0.954 -27.332001 -1.489
-0.87 -27.384001 -1.492
-0.78500003 -27.448999 -1.4960001
-0.70099998 -27.525 -1.501
-0.40000001 -27.698999 -1.511
-0.31400001 -27.728001 -1.513
-0.227 -27.757 -1.5140001
-0.14 -27.771 -1.515
0.16599999 -27.865 -1.521
0.257 -28.153999 -1.539
0.34400001 -28.037001 -1.5319999
0.43200001 -28.052 -1.533
0.833 -28.177999 -1.541
0.92199999 -28.208 -1.543
1.01 -28.191 -1.5420001
1.0549999 -28.191 -1.5420001
1.1440001 -28.201 -1.543
1.234 -28.222 -1.545
1.325 -28.278999 -1.549
1.415 -28.289 -1.549
1.508 -28.362 -1.554
1.599 -28.386999 -1.556
1.647 -28.450001 -1.5599999
1.739 -28.487 -1.563
1.832 -28.539 -1.566
1.924 -28.563 -1.568
2.016 -28.583 -1.5700001
2.109 -28.625999 -1.573
2.2060001 -28.707001 -1.5779999
2.2550001 -28.757 -1.582
2.348 -28.780001 -1.5829999
2.4400001 -28.796 -1.585
2.536 -28.844 -1.5880001
2.632 -28.896999 -1.592
2.727 -28.933001 -1.595
2.8239999 -28.988001 -1.599
2.8729999 -29.021 -1.601
2.9719999 -29.080999 -1.6059999
3.0680001 -29.118999 -1.609
3.1659999 -29.171 -1.612
3.263 -29.202999 -1.615
3.3570001 -29.218 -1.617
3.473 -29.408001 -1.6289999
3.723 -29.534 -1.6390001
3.8099999 -29.474001 -1.636
3.8970001 -29.419001 -1.633
3.9860001 -29.381001 -1.631
4.0739999 -29.34 -1.63
4.1160002 -29.306 -1.628
4.204 -29.261999 -1.626
4.2919998 -29.223 -1.624
4.3769999 -29.167999 -1.622
4.4650002 -29.128 -1.62
4.5560002 -29.110001 -1.62
4.645 -29.08 -1.619
4.6859999 -29.047001 -1.617
4.7740002 -29.011999 -1.6160001
4.8660002 -29.003 -1.6160001
4.9559999 -28.982 -1.6160001
5.0489998 -28.972 -1.6160001
5.1339998 -28.924 -1.614
5.2220001 -28.893999 -1.614
5.2600002 -28.844999 -1.6109999
5.3460002 -28.802999 -1.609
5.434 -28.771999 -1.609
5.5190001 -28.729 -1.607
5.6059999 -28.695999 -1.6059999
5.6960001 -28.674 -1.6059999
5.7870002 -28.662001 -1.6059999
5.8330002 -28.659 -1.6059999
5.9190001 -28.618999 -1.605
6.0079999 -28.598 -1.605
6.099 -28.583 -1.605
6.1939998 -28.589001 -1.607
6.2880001 -28.589001 -1.608
6.3790002 -28.575001 -1.608
6.4250002 -28.566999 -1.609
6.5120001 -28.537001 -1.608
6.6020002 -28.516001 -1.608
6.6900001 -28.492001 -1.608
6.7839999 -28.49 -1.609
6.8699999 -28.452999 -1.608
6.9590001 -28.429001 -1.608
7.0079999 -28.438 -1.609
7.0949998 -28.403999 -1.608
7.184 -28.381001 -1.608
7.2789998 -28.382 -1.61
7.3769999 -28.392 -1.612
7.467 -28.370001 -1.612
7.5549998 -28.343 -1.612
7.5999999 -28.334999 -1.612
7.6880002 -28.305 -1.612
7.9299998 -28.487 -1.626
7.9499998 -28.216 -1.6109999
8.0139999 -28.105 -1.605
8.092 -28.045 -1.603
8.132 -28.02 -1.602
8.2130003 -27.969999 -1.601
8.3059998 -27.961 -1.602
8.3929996 -27.933001 -1.602
8.4840002 -27.916 -1.602
8.5719995 -27.891001 -1.602
8.6540003 -27.847 -1.601
8.698 -27.833 -1.601
8.7919998 -27.825001 -1.602
8.8780003 -27.792999 -1.602
8.9790001 -27.806999 -1.605
9.0780001 -27.816999 -1.607
9.1490002 -27.739 -1.604
9.3330002 -27.854 -1.614
9.3870001 -27.726999 -1.608
9.4580002 -27.65 -1.605
9.5349998 -27.59 -1.603
9.6129999 -27.535 -1.601
9.698 -27.503 -1.601
9.7840004 -27.469999 -1.601
9.8249998 -27.448999 -1.601
9.9090004 -27.410999 -1.6
9.9919996 -27.372 -1.6
10.077 -27.337 -1.6
10.17 -27.326 -1.601
10.247 -27.271 -1.599
10.332 -27.235001 -1.599
10.374 -27.216999 -1.599
10.471 -27.216 -1.601
10.553 -27.173 -1.601
10.673 -27.228001 -1.6059999
10.825 -27.361 -1.617
10.853 -27.184 -1.608
10.901 -27.056999 -1.602
10.927 -26.999001 -1.599
10.996 -26.926001 -1.596
11.077 -26.882 -1.596
11.172 -26.872999 -1.598
11.257 -26.84 -1.598
