# .PCD v0.7 - Point Cloud Data file format
VERSION 0.7
FIELDS x y z
SIZE 4 4 4
TYPE F F F
COUNT 1 1 1
WIDTH 81
HEIGHT 1
VIEWPOINT 0 0 0 1 0 0 0
POINTS 81
DATA ascii
3.984 -26.466999 -1.6390001
4.0669999 -26.448999 -1.6390001
4.1479998 -26.424 -1.638
4.2309999 -26.409 -1.638
4.3109999 -26.379999 -1.637
4.349 -26.353001 -1.636
4.428 -26.316 -1.6339999
4.506 -26.275999 -1.632
4.586 -26.246 -1.631
4.6609998 -26.190001 -1.628
4.7389998 -26.152 -1.627
4.8179998 -26.117001 -1.625
4.8600001 -26.118 -1.626
4.941 -26.094 -1.625
5.0219998 -26.075001 -1.625
5.099 -26.031 -1.623
5.1760001 -25.992001 -1.6210001
5.263 -26.003 -1.623
5.3369999 -25.948999 -1.6210001
5.3779998 -25.945 -1.6210001
5.461 -25.931 -1.6210001
5.5380001 -25.896999 -1.62
5.619 -25.877001 -1.62
5.704 -25.872999 -1.6210001
5.7800002 -25.834999 -1.619
5.8629999 -25.823 -1.62
5.902 -25.806 -1.619
5.9819999 -25.783001 -1.619
6.0609999 -25.759001 -1.619
6.1420002 -25.739 -1.619
6.2199998 -25.708 -1.618
6.2979999 -25.674999 -1.617
6.3769999 -25.646999 -1.6160001
6.408 -25.603001 -1.614
6.4780002 -25.540001 -1.6109999
6.552 -25.493999 -1.609
6.6329999 -25.476999 -1.609
6.7119999 -25.452999 -1.609
6.789 -25.424 -1.608
6.868 -25.398001 -1.608
6.915 -25.414 -1.61
7.0029998 -25.42 -1.612
7.0890002 -25.422001 -1.614
7.177 -25.427 -1.6160001
7.3790002 -25.528999 -1.626
7.4250002 -25.386999 -1.618
7.4439998 -25.306 -1.613
7.513 -25.247999 -1.61
7.5929999 -25.225 -1.61
7.6810002 -25.231001 -1.613
7.756 -25.194 -1.612
7.835 -25.167 -1.6109999
7.9159999 -25.148001 -1.612
7.9520001 -25.124001 -1.6109999
8.0349998 -25.114 -1.612
8.1040001 -25.059 -1.61
8.1809998 -25.025 -1.609
8.257 -24.993999 -1.609
8.3439999 -24.992001 -1.6109999
8.4259996 -24.976 -1.6109999
8.4689999 -24.976 -1.612
8.5489998 -24.952999 -1.613
8.7440004 -25.01 -1.6210001
8.8000002 -24.917999 -1.6160001
8.8529997 -24.816999 -1.6109999
8.9189997 -24.757 -1.608
8.9619999 -24.754 -1.609
9.0389996 -24.724001 -1.609
9.1169996 -24.695999 -1.609
9.1940002 -24.667 -1.609
9.2580004 -24.6 -1.6059999
9.3369999 -24.577 -1.607
9.415 -24.551001 -1.607
9.4420004 -24.504999 -1.605
9.5 -24.426001 -1.601
9.5979996 -24.450001 -1.605
9.6890001 -24.455 -1.608
9.7440004 -24.371 -1.604
9.8129997 -24.322001 -1.602
9.8649998 -24.232 -1.598
9.908 -24.226999 -1.599
