# .PCD v0.7 - Point Cloud Data file format
VERSION 0.7
FIELDS x y z
SIZE 4 4 4
TYPE F F F
COUNT 1 1 1
WIDTH 143
HEIGHT 1
VIEWPOINT 0 0 0 1 0 0 0
POINTS 143
DATA ascii
-22.959999 52.694 1.788
-23.070999 52.499001 1.784
-23.211 52.369999 1.783
-23.271 52.284 1.781
-23.417 52.167999 1.78
-24.58 51.154999 -0.242
-24.620001 51.032001 -0.241
-24.007999 51.616001 -0.243
-24.148001 51.493999 -0.243
-24.289 51.374001 -0.242
-23.856001 51.714001 -0.98900002
-23.997999 51.596001 -0.98799998
-24.059999 51.518002 -0.98699999
-24.202 51.400002 -0.986
-24.431 51.257999 -0.242
-24.336 51.265999 -0.98500001
-24.481001 51.154999 -0.98400003
-22.833 52.629002 -1.291
-22.976999 52.509998 -1.29
-23.118 52.382999 -1.288
-23.264999 52.271 -1.2869999
-23.402 52.138 -1.286
-23.546 52.02 -1.284
-23.621 51.966999 -1.284
-23.742001 51.801998 -1.281
-23.889 51.692001 -1.28
-24.027 51.566002 -1.279
-24.172001 51.453999 -1.278
-24.298 51.301998 -1.276
-24.441 51.188 -1.275
-24.499001 51.104 -1.273
-23.143999 53.346001 0.116
-23.037001 52.646999 0.117
-23.167 52.493999 0.118
-23.312 52.376999 0.118
-23.454 52.254002 0.118
-23.523001 52.188 0.118
-23.650999 52.034 0.118
-23.795 51.917 0.118
-23.045 52.729 2.155
-24.125999 51.779999 0.118
-24.313999 51.756001 0.118
-23.343 52.287998 2.145
-24.513 51.549 0.118
-24.652 51.423 0.118
-23.007 52.990002 1.087
-23.014 52.555 1.081
-23.152 52.419998 1.079
-23.299 52.308998 1.079
-23.436001 52.173 1.0779999
-23.577 52.049999 1.077
-23.719999 51.93 1.076
-23.781 51.848999 1.075
-23.927999 51.740002 1.075
-24.127001 51.743 1.076
-23.93 51.782001 0.118
-23.056 52.528 2.1489999
-23.200001 52.41 2.1470001
-24.454 51.632 0.118
-21.291 53.986 -1.012
-21.351 53.644001 -1.006
-21.506001 53.543999 -1.005
-21.659 53.437 -1.0039999
-21.82 53.352001 -1.0039999
-21.965 53.229 -1.002
-22.033001 53.155998 -1.001
-22.188 53.058998 -1.001
-22.341999 52.959 -1.0
-22.497 52.861 -1.0
-22.648001 52.755001 -0.99900001
-22.794001 52.639999 -0.99800003
-22.948 52.542 -0.99699998
-23.087999 52.412998 -0.99599999
-23.152 52.334999 -0.995
-23.292999 52.210999 -0.99400002
-23.436001 52.09 -0.99299997
-23.576 51.963001 -0.991
-23.719999 51.847 -0.99000001
-22.895 52.816002 0.38800001
-22.948999 52.488998 0.38699999
-23.089001 52.360001 0.38699999
-23.153 52.282001 0.38699999
-23.294001 52.158001 0.38699999
-23.434999 52.035 0.38699999
-23.573999 51.907001 0.38699999
-23.705999 51.764999 0.38600001
-23.875 51.705002 0.38600001
-24.080999 51.722 0.38699999
-24.245001 51.862 0.38699999
-24.358999 51.681999 0.38699999
-23.103001 53.16 1.528
-23.042 52.569 1.516
-23.184999 52.445 1.5140001
-23.333 52.334999 1.513
-23.67 51.987999 1.5089999
-23.809 51.862999 1.508
-23.952999 51.745998 1.507
-22.1 53.205002 -0.602
-22.247 53.087002 -0.60100001
-22.406 52.997002 -0.60100001
-23.143 53.334 -0.60900003
-23.040001 52.644001 -0.60000002
-23.049999 52.443001 -0.597
-23.200001 52.337002 -0.597
-23.34 52.209 -0.59600002
-23.486 52.095001 -0.59500003
-23.624001 51.965 -0.59500003
-23.198999 52.207001 -1.624
-23.344999 52.096001 -1.623
-23.965 51.636002 -0.59200001
-24.107 51.516998 -0.59200001
-23.684999 51.759998 -1.618
-24.386 51.272999 -0.58999997
-23.962 51.507 -1.614
-24.110001 51.402 -1.613
-24.266001 51.314999 -1.612
-24.490999 51.374001 -1.617
-23.771 51.855999 -0.59399998
-23.827 51.764 -0.59299999
-23.865999 51.735001 -0.243
-23.627001 51.849998 -1.619
-24.247 51.396 -0.59100002
-23.830999 51.648998 -1.6160001
-24.524 51.146999 -0.58999997
-23.011 52.981998 0.79100001
-23.024 52.561001 0.787
-23.075001 52.453999 0.78600001
-23.219 52.333 0.78600001
-23.358999 52.206001 0.78500003
-23.506001 52.095001 0.78500003
-23.643 51.963001 0.78399998
-23.784 51.839001 0.78399998
-23.936001 51.741001 0.78299999
-24.062 51.799 0.78399998
-24.341 51.973 0.787
-22.978001 53.064999 -0.25
-22.968 52.585999 -0.24699999
-23.1 52.438 -0.24600001
-23.240999 52.312 -0.245
-23.379 52.181 -0.245
-23.524 52.064999 -0.245
-23.584999 51.981998 -0.244
-23.73 51.868 -0.244
