# .PCD v0.7 - Point Cloud Data file format
VERSION 0.7
FIELDS x y z
SIZE 4 4 4
TYPE F F F
COUNT 1 1 1
WIDTH 209
HEIGHT 1
VIEWPOINT 0 0 0 1 0 0 0
POINTS 209
DATA ascii
-26.846001 49.229 0.77399999
-26.975 49.097 0.773
-27.1 48.959999 0.773
-27.224001 48.821999 0.77200001
-27.392 48.762001 0.77200001
-27.580999 48.737999 0.773
-27.906 48.953999 0.77700001
-27.374001 48.484001 -1.5779999
-27.664 48.296001 -0.96200001
-25.794001 50.007999 -0.23800001
-25.940001 49.905998 -0.23800001
-26.069 49.771 -0.237
-26.219999 49.68 -0.237
-26.43 49.698002 -0.23800001
-26.482 49.608002 -0.237
-26.608999 49.470001 -0.237
-25.913 49.960999 1.755
-25.969999 49.879002 1.7539999
-26.115999 49.778 1.753
-26.308001 49.763 1.755
-26.465 49.681999 1.755
-26.596001 49.550999 1.7539999
-26.724001 49.416 1.752
-26.844999 49.27 1.75
-26.976999 49.144001 1.749
-27.025999 49.050999 1.747
-27.153 48.916 1.7460001
-25.77 49.952 -1.595
-28.099001 47.827 -0.23100001
-27.674 48.765999 1.749
-28.038 49.049 1.761
-26.514 49.581001 -0.583
-26.646 49.452999 -0.58200002
-26.693001 49.355 -0.58099997
-27.278 48.779999 1.744
-26.348 49.535 -1.591
-26.952999 49.095001 -0.57999998
-27.079 48.959 -0.579
-26.731001 49.325001 -0.236
-27.208 48.830002 -0.57800001
-27.325001 48.68 -0.57700002
-27.462 48.748001 1.7460001
-27.455 48.554001 -0.57599998
-27.745001 48.716 0.12
-27.507 48.466999 -0.57599998
-25.827999 49.992001 -1.263
-25.952 49.846001 -1.261
-26.091 49.733002 -1.26
-26.25 49.655998 -1.26
-26.320999 49.599998 -1.26
-26.860001 49.193001 -0.236
-26.635 49.438999 -1.26
-26.768999 49.317001 -1.2589999
-26.896 49.181999 -1.257
-27.014 49.032001 -1.255
-27.146999 48.909 -1.2539999
-27.271999 48.771999 -1.253
-27.313 48.665001 -1.251
-27.441 48.535 -1.249
-26.509001 49.578999 -1.261
-27.68 48.249001 -1.2460001
-27.792 48.092999 -1.244
-27.927 47.978001 -1.243
-27.504999 48.361 -1.576
-28.1 47.756001 -1.24
-28.226 47.627998 -1.239
-27.874001 48.587002 0.12
-27.671 48.299 -1.577
-27.877001 48.305 -1.581
-25.879999 50.091999 0.119
-26.000999 49.942001 0.119
-26.139999 49.826 0.119
-26.278999 49.712002 0.119
-26.434999 49.817001 0.119
-26.552999 49.660999 0.119
-26.698 49.557999 0.119
-26.822001 49.415001 0.119
-26.032 49.863998 2.1110001
-26.186001 49.777 2.1110001
-26.375 49.756001 2.1129999
-26.533001 49.675999 2.1140001
-26.65 49.521 2.1110001
-26.782 49.395 2.109
-26.91 49.258999 2.1070001
-26.966 49.178001 2.1059999
-27.091 49.041 2.1040001
-27.214001 48.900002 2.1010001
-28.18 48.238998 0.12
-28.299 48.095001 0.12
-28.000999 48.456001 0.12
-26.735001 49.333 -0.97100002
-26.863001 49.200001 -0.97000003
-26.903999 49.092999 -0.96899998
-27.120001 48.936001 -0.235
-27.562 48.395 -1.248
-27.028999 48.953999 -0.96700001
-27.320999 48.569 -1.579
-26.986 49.057999 -0.236
-27.16 48.827999 -0.96600002
-27.285 48.692001 -0.96499997
-25.851 50.0 1.064
-25.987 49.880001 1.063
-26.127001 49.765999 1.063
-26.302 49.719002 1.063
-26.483 49.683998 1.064
-26.533001 49.589001 1.063
-26.663 49.458 1.062
-26.788 49.318001 1.061
-26.917 49.186001 1.061
-27.045 49.054001 1.0599999
-27.174999 48.924999 1.059
-27.299999 48.789001 1.058
-27.452 48.701 1.058
-27.573999 48.737999 1.0599999
-27.943001 49.029999 1.066
-27.73 48.235001 -0.96200001
-27.858 48.108002 -0.96100003
-27.962999 47.939999 -0.95899999
-28.089001 47.811001 -0.958
-27.294001 48.707001 -0.234
-28.221001 47.692001 -0.95700002
-26.608 49.470001 -0.97299999
-27.424 48.581001 -0.234
-25.788 49.997002 -0.97399998
-25.853001 49.931 -0.97399998
-25.996 49.823002 -0.97299999
-26.131001 49.701 -0.972
-26.305 49.652 -0.97299999
-26.438 49.527 -0.972
-25.785999 49.946999 0.384
-25.921 49.824001 0.384
-25.976999 49.740002 0.384
-26.167999 49.723999 0.384
-26.337 49.666 0.384
-26.466999 49.535999 0.384
-26.594999 49.401001 0.384
-26.726999 49.272999 0.384
-26.854 49.138 0.38299999
-26.907 49.051998 0.38299999
-27.027 48.905998 0.38299999
-27.15 48.766998 0.38299999
-27.327 48.723 0.38299999
-27.518999 48.707001 0.38299999
-27.827999 48.895 0.384
-27.931 48.365002 0.38299999
-27.676001 48.314999 -0.233
-26.948 49.277 0.119
-27.076 49.145 0.12
-27.122999 49.047001 0.12
-27.250999 48.916 0.12
-27.367001 48.762001 0.12
-27.801001 48.181 -0.233
-27.556999 48.742001 0.12
-25.882 50.02 1.4910001
-26.021 49.903 1.49
-26.158001 49.784 1.489
-26.316 49.705002 1.489
-26.437 49.744999 1.4910001
-26.565001 49.608002 1.49
-26.691 49.470001 1.489
-26.822001 49.34 1.487
-26.952 49.209999 1.4859999
-27.077 49.073002 1.485
-27.204 48.938999 1.484
-27.253 48.847 1.482
-27.403 48.754002 1.482
-27.584 48.717999 1.483
-27.903999 48.923 1.4910001
-28.138 48.976002 1.495
-28.125999 48.320999 0.12
-27.927999 48.051998 -0.23199999
-28.427999 47.969002 0.12
-28.032 47.812 -1.2410001
-28.049999 47.916 -0.23199999
-27.548 48.444 -0.233
-25.888 49.908001 -0.583
-26.025 49.789001 -0.58200002
-26.17 49.686001 -0.58200002
-26.355 49.658001 -0.583
-25.896999 49.813999 -1.5930001
-26.028 49.685001 -1.591
-26.214001 49.659 -1.5930001
-26.823 49.224998 -0.57999998
-26.517 49.478001 -1.592
-26.569 49.389 -1.591
-26.697001 49.254002 -1.589
-26.818001 49.108002 -1.587
-26.954 48.991001 -1.585
-27.080999 48.859001 -1.584
-27.201 48.712002 -1.581
-27.753 48.193001 -0.574
-27.885 48.073002 -0.57300001
-28.007999 47.937 -0.57300001
-28.129999 47.799999 -0.57200003
-28.257 47.674 -0.57099998
-28.000999 47.824001 -1.569
-27.419001 48.573002 -0.96399999
-28.219999 47.688999 -0.23100001
-27.247 48.804001 -0.235
-27.632999 48.335999 -0.57499999
-27.540001 48.431 -0.963
-25.782 50.049 0.77600002
-25.921 49.931999 0.77600002
-26.052999 49.801998 0.77499998
-26.233999 49.768002 0.77600002
-26.407 49.716999 0.77600002
-26.544001 49.597 0.77600002
-26.664 49.448002 0.77499998
-26.799999 49.328999 0.77399999
