# .PCD v0.7 - Point Cloud Data file format
VERSION 0.7
FIELDS x y z
SIZE 4 4 4
TYPE F F F
COUNT 1 1 1
WIDTH 141
HEIGHT 1
VIEWPOINT 0 0 0 1 0 0 0
POINTS 141
DATA ascii
-13.632 22.844999 0.47600001
-13.651 22.796 0.47600001
-13.733 22.77 0.47600001
-13.831 22.768999 0.47600001
-13.284 22.943001 -1.296
-13.287 22.782 -1.288
-13.353 22.731001 -1.288
-13.442 22.719 -1.29
-13.541 22.804001 -1.2970001
-13.612 22.761 -1.2970001
-13.698 22.742001 -1.298
-13.85 22.833 -1.307
-13.874 22.709999 -1.302
-13.836 22.488001 -1.29
-13.895 22.426001 -1.289
-13.98 22.406 -1.29
-14.03 22.408001 -1.2920001
-14.081 22.333 -1.29
-14.226 22.407 -1.298
-14.255 22.298 -1.293
-13.612 22.813 -0.003
-13.672 22.749001 -0.003
-13.689 22.617001 -0.0020000001
-13.863 22.743 -0.0040000002
-13.64 23.07 0.94499999
-13.541 22.738001 0.93599999
-13.629 22.725 0.93699998
-13.735 22.738001 0.93900001
-13.701 22.601999 0.935
-13.632 22.864 -0.48899999
-13.691 22.801001 -0.48899999
-13.732 22.705999 -0.48699999
-13.596 22.864 -0.64700001
-13.689 22.712999 -0.16599999
-13.656 22.905001 0.16500001
-13.698 22.812 0.16500001
-13.744 22.643 -0.16599999
-13.872 22.777 0.16500001
-13.609 22.849001 1.108
-13.544 22.579 1.099
-13.72 22.790001 1.109
-13.708 22.610001 1.103
-13.938 22.826 1.113
-13.901 22.607 1.107
-13.853 22.371 1.099
-13.294 23.094999 -0.82300001
-13.272 22.891001 -0.81599998
-13.316 22.802 -0.81400001
-13.628 22.839001 -0.82099998
-13.689 22.777 -0.81999999
-13.7 22.747999 0.61199999
-13.763 22.691 0.611
-13.898 22.719999 -0.82300001
-13.871 22.516001 -0.815
-13.946 22.48 -0.81599998
-14.031 22.459 -0.81699997
-14.223 22.608 -0.82599998
-13.637 22.804001 0.61199999
-13.738 22.778 -0.82099998
-13.892 22.871 -0.82800001
-13.335 22.893999 -1.436
-13.373 22.795 -1.432
-13.451 22.763 -1.433
-13.56 22.784 -1.437
-13.628 22.816 -1.441
-13.701 22.775999 -1.441
-13.818 22.808001 -1.447
-13.932 22.833 -1.452
-13.893 22.610001 -1.439
-13.913 22.483 -1.433
-13.997 22.462 -1.434
-14.087 22.448 -1.437
-14.144 22.461 -1.439
-14.314 22.573 -1.451
-14.293 22.384001 -1.4400001
-14.366 22.344 -1.441
-13.285 22.809 -1.122
-13.308 22.764999 -1.1210001
-13.386 22.733999 -1.1210001
-13.471 22.716 -1.123
-13.601 22.771 -1.128
-13.672 22.728001 -1.128
-13.773 22.733 -1.131
-13.916 22.806999 -1.138
-13.873 22.577999 -1.127
-13.851 22.462999 -1.122
-13.935 22.441 -1.123
-14.016 22.414 -1.124
-14.126 22.431999 -1.128
-14.301 22.551001 -1.137
-14.34 22.458 -1.1339999
-13.634 22.85 -0.35299999
-13.682 22.767 -0.352
-13.733 22.690001 -0.35100001
-13.824 22.761 -0.35299999
-13.543 22.84 0.29100001
-13.59 22.756001 0.28999999
-13.649 22.693001 0.28999999
-13.709 22.712 0.28999999
-13.625 22.983999 0.81699997
-13.626 22.823 0.81400001
-13.707 22.795 0.81400001
-13.769 22.737 0.81400001
-13.882 22.761999 0.81599998
-13.77 22.771 0.16500001
-13.614 22.830999 -0.167
-13.621 22.761999 -0.16599999
-13.605 22.798 -0.64499998
-13.678 22.757 -0.64499998
-13.78 22.764999 -0.64700001
-13.896 22.792999 -0.64999998
-13.849 22.556999 -0.64300001
-13.891 22.466 -0.64099997
-13.943 22.471001 -0.64200002
-14.026 22.447001 -0.64300001
-14.069 22.358999 -0.64099997
-13.298 23.046 -0.98000002
-13.239 22.861 -0.97100002
-13.287 22.778 -0.96899998
-13.37 22.757 -0.97000003
-13.461 22.747 -0.972
-13.594 22.808001 -0.977
-13.672 22.775999 -0.97799999
-13.766 22.77 -0.98000002
-13.888 22.892 -0.98699999
-13.858 22.681 -0.97899997
-13.848 22.504999 -0.972
-13.924 22.469999 -0.972
-14.013 22.455999 -0.97399998
-14.059 22.372999 -0.972
-13.595 22.813999 -1.625
-13.654 22.749001 -1.623
-13.703 22.75 -1.625
-13.86 22.848 -1.637
-13.858 22.684 -1.627
-13.833 22.483999 -1.614
-13.917 22.462 -1.6160001
-14.002 22.440001 -1.618
-14.038 22.341999 -1.613
-14.226 22.485001 -1.6289999
-14.214 22.233 -1.613
