# .PCD v0.7 - Point Cloud Data file format
VERSION 0.7
FIELDS x y z
SIZE 4 4 4
TYPE F F F
COUNT 1 1 1
WIDTH 275
HEIGHT 1
VIEWPOINT 0 0 0 1 0 0 0
POINTS 275
DATA ascii
-31.582001 42.453999 -0.211
-29.452999 46.063 -0.94099998
-28.937 47.248001 0.76700002
-29.280001 47.473999 0.77100003
-29.295 46.835999 0.76499999
-31.145 43.208 -0.54100001
-29.841 45.611 0.75800002
-29.875999 45.508999 0.75700003
-29.992001 45.375 0.75700003
-30.099001 45.227001 0.75599998
-30.214001 45.091999 0.75599998
-30.319 44.943001 0.755
-30.386 44.737999 0.75400001
-30.417 44.481998 0.75199997
-30.509001 44.317001 0.75099999
-30.538 44.212002 0.75
-30.631001 44.049999 0.74900001
-30.728001 43.895 0.74900001
-30.826 43.741001 0.74800003
-30.921 43.584999 0.74699998
-31.054001 43.483002 0.74699998
-30.98 43.471001 -0.215
-31.371 43.491001 0.74900001
-28.816 46.995998 -0.229
-28.856001 46.896 -0.228
-28.975 46.758999 -0.228
-29.082001 46.603001 -0.227
-29.202999 46.473 -0.227
-29.309999 46.318001 -0.226
-29.427999 46.183998 -0.226
-29.528 46.02 -0.22499999
-29.35 46.797001 1.726
-29.455999 46.640999 1.724
-29.790001 45.636002 -0.22400001
-29.634001 46.436001 1.722
-30.011 45.349998 -0.223
-30.117001 45.200001 -0.222
-30.226999 45.058998 -0.222
-30.341 44.922001 -0.221
-30.341 44.77 -0.22
-30.365 44.504002 -0.219
-30.461 44.344002 -0.21799999
-30.573999 44.210999 -0.21799999
-30.385 44.618 1.692
-30.448999 44.41 1.688
-30.549 44.258999 1.686
-30.65 44.106998 1.684
-30.674 43.993999 1.682
-30.766001 43.832001 1.6799999
-30.864 43.678001 1.678
-30.968 43.535 1.677
-31.118999 43.457001 1.677
-31.309999 43.436001 1.6799999
-31.150999 43.136002 -0.91100001
-31.527 43.161999 1.677
-30.357 44.879002 1.697
-31.754999 42.765999 1.6720001
-31.862 42.629002 1.671
-31.33 42.758999 -1.178
-31.620001 43.012001 0.124
-31.327999 42.889999 -0.53899997
-31.712999 42.856998 0.124
-31.812 42.709 0.124
-31.224001 43.435001 1.021
-31.047001 43.508999 0.124
-28.719 47.101002 -1.234
-28.836 46.959 -1.232
-28.839001 46.799999 -1.229
-28.965 46.674999 -1.228
-29.066 46.511002 -1.226
-29.306999 46.248001 -1.223
-29.447001 46.146999 -1.223
-29.799999 45.588001 -1.216
-29.919001 45.458 -1.214
-30.021999 45.303001 -1.2130001
-30.131001 45.159 -1.211
-30.257999 45.042 -1.21
-30.292999 44.942001 -1.209
-30.289 44.632999 -1.202
-30.358999 44.435001 -1.199
-30.466 44.292 -1.197
-30.577 44.157001 -1.196
-30.662001 43.983002 -1.193
-30.763 43.834 -1.192
-30.858999 43.679001 -1.1900001
-30.896999 43.585999 -1.189
-30.993 43.431999 -1.187
-31.077 43.261002 -1.184
-31.188999 43.131001 -1.183
-31.245001 42.924999 -1.1799999
-31.225 43.467999 0.124
-31.474001 42.533001 -1.175
-28.896 47.223 0.121
-29.052999 47.147999 0.121
-29.172001 47.008999 0.121
-29.277 46.848999 0.121
-29.396999 46.714001 0.121
-29.506001 46.563 0.121
-29.615 46.410999 0.121
-29.653 46.310001 0.121
-29.878 45.707001 0.122
-29.975 45.542999 0.122
-30.091999 45.409 0.122
-29.679001 46.396 2.072
-30.226999 45.150002 0.122
-30.35 45.027 0.122
-30.417999 44.824001 0.123
-30.951 43.662998 0.124
-30.540001 44.293999 2.0280001
-30.643 44.145 2.026
-31.400999 43.424999 0.123
-31.496 43.269001 0.124
-31.591999 43.115002 0.124
-31.021999 43.514 2.016
-31.139999 43.389999 2.0150001
-31.288 43.307999 2.016
-30.655001 44.032001 -0.21699999
-28.663 47.203999 0.38100001
-31.562 43.068001 1.676
-29.490999 46.050999 -0.56099999
-28.798 47.196999 1.049
-28.997999 47.192001 1.05
-29.346001 47.424 1.056
-29.281 46.824001 1.048
-29.427 46.73 1.048
-30.756001 43.882 -0.21699999
-29.841 45.618 1.0369999
-29.948 45.469002 1.036
-30.058001 45.326 1.035
-30.166 45.18 1.034
-30.278 45.040001 1.033
-30.374001 44.879002 1.0319999
-30.384001 44.742001 1.03
-30.407 44.473999 1.027
-30.490999 44.298 1.026
-30.605 44.166 1.025
-30.698999 44.005001 1.024
-30.788 43.838001 1.023
-30.896999 43.700001 1.022
-30.992001 43.543999 1.021
-31.044001 43.473 1.02
-29.855 45.417 -1.535
-31.481001 43.504002 1.025
-31.761999 43.604 1.028
-31.719999 42.830002 0.74599999
-29.954 45.256001 -1.533
-30.854 43.729 -0.21600001
-30.191999 44.999001 -1.53
-30.292 44.841999 -1.528
-30.292 44.540001 -1.52
-28.962999 46.740002 -0.94800001
-30.299999 44.402 -1.516
-31.459999 42.708 -0.212
-29.118999 47.084999 1.73
-30.952 43.577 -0.21600001
-29.233 46.938999 1.728
-29.222 46.341999 -0.94400001
-30.25 45.026001 1.699
-29.333 46.195999 -0.94199997
-28.735001 47.029999 -0.95099998
-28.849001 46.884998 -0.949
-29.504999 46.556 1.723
-29.073999 46.592999 -0.94599998
-29.183001 46.442001 -0.94499999
-28.863001 47.199001 0.38100001
-29.172001 47.368999 0.382
-29.120001 46.953999 0.38100001
-29.219999 46.785999 0.38100001
-31.042 43.351002 -0.542
-29.885 45.470001 -0.93599999
-29.93 45.382999 -0.935
-30.042 45.242001 -0.93400002
-30.143999 45.088001 -0.93199998
-29.768 45.564999 0.37799999
-29.877001 45.418999 0.37799999
-30.344999 44.476002 -0.92400002
-30.018999 45.169998 0.37799999
-30.128 45.027 0.37799999
-30.240999 44.889 0.377
-30.302999 44.678001 0.377
-30.339001 44.431 0.37599999
-30.434999 44.271 0.37599999
-30.530001 44.112 0.37599999
-30.556 44.001999 0.37599999
-29.882999 45.553001 1.706
-30.757 43.702999 0.375
-30.844999 43.535999 0.375
-30.997 43.459999 0.375
-31.166 43.408001 0.375
-31.382999 43.421001 0.37599999
-29.999001 45.418999 1.704
-31.650999 42.793999 0.375
-31.427 42.743 -0.53799999
-30.110001 45.276001 1.7029999
-31.014999 43.457001 -0.54299998
-31.08 43.323002 -0.214
-30.142 45.169998 1.701
-30.252001 44.943001 -0.93099999
-30.337999 44.766998 -0.92900002
-30.945999 43.598 1.426
-29.979 45.264 0.37799999
-30.466 44.352001 -0.92299998
-31.232 43.442001 0.74800003
-31.233999 43.423 1.427
-31.173 43.165001 -0.214
-30.556 44.186001 -0.921
-31.233 43.042999 -0.54000002
-29.007 47.172001 1.47
-29.299999 47.480999 1.479
-29.451 46.734001 1.466
-30.697001 43.945 -0.91900003
-30.094 45.351002 1.448
-30.197001 45.195999 1.446
-30.306999 45.055 1.4450001
-30.415001 44.91 1.444
-30.443001 44.799 1.442
-30.441999 44.497002 1.436
-30.533001 44.330002 1.434
-30.631001 44.174999 1.433
-30.733999 44.028 1.431
-30.826 43.866001 1.429
-30.861 43.768002 1.428
-30.561001 44.043999 -0.91900003
-31.061001 43.469002 1.425
-30.976 43.466 -0.91399997
-31.468 43.459999 1.4299999
-31.798 43.625 1.438
-31.07 43.310001 -0.91299999
-30.652 43.845001 0.375
-31.202999 43.063999 -0.91000003
-31.792999 42.792 1.0190001
-31.483999 42.601002 -0.212
-31.284 42.891998 -0.90799999
-31.372999 42.872002 -0.213
-29.902 45.494999 -0.223
-31.468 42.580002 -0.90499997
-31.434999 43.320999 1.679
-31.573 42.442001 -0.90399998
-31.584999 43.556999 0.37599999
-28.777 47.021999 -0.56699997
-28.888 46.872002 -0.56599998
-29.000999 46.727001 -0.565
-29.117001 46.585999 -0.565
-29.150999 46.478001 -0.56400001
-29.261999 46.332001 -0.56300002
-29.377001 46.191002 -0.56199998
-29.26 46.230999 -1.5470001
-29.344 46.044998 -1.543
-30.780001 43.771 -0.917
-29.936001 45.476002 -0.55800003
-29.961 45.359001 -0.55599999
-30.080999 45.231998 -0.55599999
-30.187 45.084 -0.55500001
-30.299 44.944 -0.55400002
-30.403999 44.796001 -0.55299997
-30.434 44.537998 -0.551
-30.431999 44.386002 -0.54900002
-30.541 44.245998 -0.54799998
-30.426001 44.286999 -1.515
-30.728001 43.924 -0.546
-30.823999 43.768002 -0.54500002
-30.921 43.613998 -0.54400003
-30.774 43.608002 -1.5039999
-30.879 43.466999 -1.502
-30.924 43.386002 -1.501
-30.988001 43.188 -1.497
-31.108 43.068001 -1.4960001
-31.231001 42.953999 -1.495
-31.399 42.901001 -1.497
-31.617001 42.441002 -0.53600001
-31.517 42.498001 -1.489
-31.274 43.02 -0.213
-30.882 43.623001 -0.91600001
-30.202999 45.268002 0.122
-31.377001 42.737 -0.90700001
