# .PCD v0.7 - Point Cloud Data file format
VERSION 0.7
FIELDS x y z
SIZE 4 4 4
TYPE F F F
COUNT 1 1 1
WIDTH 300
HEIGHT 1
VIEWPOINT 0 0 0 1 0 0 0
POINTS 300
DATA ascii
-5.9439998 4.1139998 -0.37900001
-5.974 4.1069999 -0.38
-5.9819999 4.085 -0.38
-5.8909998 4.1659999 -1.273
-5.8979998 4.1430001 -1.271
-5.914 4.1269999 -1.272
-5.8930001 4.099 -1.265
-5.9190001 4.0890002 -1.268
-5.9289999 4.0679998 -1.268
-5.8969998 4.1599998 -1.549
-5.9770002 4.046 -1.273
-5.8920002 4.1290002 -1.544
-5.8870001 4.098 -1.539
-5.875 4.1409998 -1.087
-5.8839998 4.0819998 -1.536
-5.9050002 4.0689998 -1.538
-5.9390001 4.079 -0.117
-5.9130001 4.1669998 -1.429
-5.9050002 4.1339998 -1.424
-5.9819999 4.085 0.40799999
-5.928 4.0949998 -1.423
-5.9439998 4.0780001 -1.424
-5.96 4.0619998 -1.425
-5.9840002 4.0640001 -1.429
-5.948 4.0440001 -1.543
-5.9120002 4.1539998 -1.487
-5.9510002 4.0560002 -1.27
-5.8889999 4.1220002 -0.026000001
-5.8889999 4.1090002 -0.025
-5.8920002 4.0830002 -0.025
-5.9050002 4.0650001 -0.025
-5.948 4.066 -0.026000001
-5.8959999 4.1399999 -0.461
-5.9060001 4.119 -0.461
-5.9200001 4.1020002 -0.461
-5.9120002 4.0819998 -0.45899999
-5.9260001 4.0650001 -0.46000001
-5.928 4.1690001 -0.69
-5.8829999 4.1399999 0.105
-5.8649998 4.0999999 0.105
-5.8759999 4.0799999 0.105
-5.8839998 4.0580001 0.105
-5.908 4.0479999 0.105
-5.928 4.1700001 -0.42199999
-5.8979998 4.1209998 -0.417
-5.8670001 4.072 -0.41299999
-5.8740001 4.0500002 -0.412
-5.914 4.1269999 -1.484
-5.9250002 4.1079998 -1.483
-5.9120002 4.1570001 -0.118
-5.9120002 4.1290002 -0.117
-5.9289999 4.1139998 -0.117
-5.9359999 4.0910001 -0.117
-5.8740001 4.027 0.229
-5.8959999 4.1659999 -1.609
-5.8870001 4.132 -1.602
-5.9000001 4.1129999 -1.602
-5.9130001 4.0949998 -1.602
-5.9260001 4.0760002 -1.602
-5.9460001 4.0630002 -1.604
-5.895 4.0139999 -1.5880001
-5.8930001 4.0840001 -1.084
-5.902 4.171 -0.82499999
-5.8829999 4.1290002 -0.81900001
-5.8800001 4.099 -0.81599998
-5.8969998 4.0840001 -0.81699997
-5.9250002 4.0760002 -0.81999999
-5.9429998 4.0739999 -0.82200003
-5.9050002 4.1529999 -0.29499999
-5.8860002 4.112 -0.292
-5.8909998 4.0869999 -0.29100001
-5.908 4.072 -0.292
-5.9200001 4.066 -0.292
-6.0180001 4.1069999 -0.29899999
-6.105 4.0830002 -0.792
-5.9070001 4.1550002 -0.55400002
-5.881 4.1090002 -0.54900002
-5.8779998 4.0929999 -0.54699999
-5.895 4.0770001 -0.54799998
-5.915 4.0630002 -0.54900002
-5.9489999 4.0599999 -0.55199999
-5.9109998 4.1420002 0.28
-5.9070001 4.1259999 0.28
-5.9070001 4.099 0.28
-5.928 4.086 0.28
-5.8000002 3.9719999 0.278
-5.9390001 4.0630002 -0.329
-6.079 4.079 -0.78799999
-5.934 4.1620002 0.19499999
-6.0380001 4.085 -0.83399999
-5.9239998 4.1279998 0.19499999
-5.8930001 4.1620002 -1.02
-5.9499998 4.118 0.19499999
-5.902 4.1430001 -0.64399999
-5.895 4.1110001 -0.64200002
-5.9099998 4.0929999 -0.64200002
-5.9499998 4.1040001 0.19499999
-6.0500002 4.1490002 -0.65899998
-5.8410001 4.1069999 -0.20100001
-5.5840001 4.0539999 0.442
-5.5190001 4.1750002 0.39899999
-5.6820002 4.2709999 0.40400001
-5.6739998 4.2509999 0.403
-5.6810002 4.2280002 0.403
-5.6560001 4.1269999 0.40099999
-5.6620002 4.105 0.40099999
-5.6170001 4.0040002 0.398
-5.8670001 4.1279998 0.40599999
-5.8829999 4.112 0.40599999
-5.8839998 4.086 0.405
-5.9070001 4.0739999 0.40599999
-5.927 4.0739999 0.40599999
-5.882 4.132 0.149
-5.9109998 4.125 0.149
-5.8899999 4.0819998 0.15000001
-5.9120002 4.0700002 0.149
-5.9450002 4.0650001 0.149
-5.921 4.0289998 -1.346
-5.9450002 4.1659999 -0.60500002
-5.927 4.1399999 -0.602
-5.9320002 4.1149998 -0.60100001
-5.9460001 4.098 -0.60100001
-5.941 4.0669999 -0.59899998
-6.0630002 4.0689998 -0.921
-5.8740001 3.9879999 -1.135
-6.0669999 4.0489998 -0.83399999
-5.8579998 4.1490002 -1.202
-5.869 4.1290002 -1.201
-5.8800001 4.1100001 -1.201
-5.888 4.0879998 -1.2
-5.8959999 4.066 -1.199
-5.914 4.0510001 -1.2
-5.9320002 4.0359998 -1.201
-5.954 4.0370002 -1.205
-5.9219999 4.118 -1.425
-5.8990002 4.138 0.017000001
-5.9169998 4.1230001 0.017000001
-5.9169998 4.0949998 0.017000001
-5.9299998 4.0770001 0.017000001
-5.9629998 4.072 0.016000001
-5.9229999 4.0929999 -1.4809999
-5.954 4.086 -1.4859999
-5.9749999 4.073 -1.488
-6.0079999 4.0689998 -1.494
-5.9169998 4.0739999 -1.086
-5.8740001 4.0349998 -0.2
-5.9039998 4.1599998 -0.85699999
-5.914 4.1389999 -0.85600001
-5.908 4.1069999 -0.85299999
-5.9330001 4.098 -0.85500002
-5.9419999 4.0890002 -0.85500002
-5.961 4.0749998 -0.85699999
-5.9840002 4.0630002 -0.85799998
-6.039 4.073 -0.866
-6.0799999 4.073 -0.87099999
-6.098 4.0570002 -0.87199998
-5.868 4.1430001 -1.35
-5.915 4.0489998 -1.5369999
-5.8800001 4.1139998 -1.148
-5.9250002 4.0489998 -1.148
-5.9289999 4.5929999 0.463
-5.631 4.3080001 0.449
-5.6110001 4.2789998 0.44800001
-5.6479998 4.2789998 0.449
-5.6550002 4.257 0.44800001
-5.6620002 4.2340002 0.44800001
-5.849 4.0079999 0.19499999
-5.605 4.0419998 0.44299999
-5.6529999 4.0229998 0.44400001
-5.5799999 3.9460001 0.44
-5.9260001 4.1599998 0.454
-5.9060001 4.1329999 0.45300001
-5.8969998 4.099 0.45199999
-5.9219999 4.0890002 0.45199999
-5.941 4.0749998 0.45300001
-5.9359999 4.1599998 -0.075000003
-5.9109998 4.1290002 -0.074000001
-5.9400001 4.1220002 -0.075000003
-5.9499998 4.1009998 -0.075000003
-5.9530001 4.0749998 -0.074000001
-5.9590001 4.1859999 -0.248
-5.8590002 4.1220002 -1.346
-5.9510002 4.1669998 -0.24699999
-5.9720001 4.1539998 -0.24699999
-6.0229998 4.1609998 -0.25
-5.8600001 4.0960002 -1.344
-5.9850001 4.2199998 -0.338
-5.948 4.165 -0.333
-5.9029999 4.1069999 -0.32800001
-5.915 4.0869999 -0.32800001
-5.6350002 4.1370001 0.31400001
-5.6240001 4.1149998 0.31400001
-5.6389999 4.099 0.31400001
-5.652 4.0809999 0.31400001
-5.6760001 4.0710001 0.31400001
-5.7179999 4.0749998 0.31400001
-5.789 4.098 0.31600001
-5.8280001 4.099 0.31600001
-5.849 4.0999999 0.31600001
-5.8720002 4.0879998 0.317
-5.8699999 4.0599999 0.31600001
-5.9060001 4.0570002 0.317
-5.8759999 4.0339999 -0.71200001
-5.921 4.1789999 -0.778
-5.9229999 4.1529999 -0.77700001
-5.9130001 4.132 -0.77399999
-5.941 4.1240001 -0.77600002
-5.881 4.0830002 -1.346
-5.973 4.0910001 -0.77700001
-5.9910002 4.0749998 -0.778
-6.0689998 4.0999999 -0.78899997
-5.9039998 4.1810002 -0.91100001
-5.8860002 4.1550002 -0.90600002
-5.8829999 4.125 -0.903
-5.8930001 4.1040001 -0.903
-5.9159999 4.0929999 -0.90399998
-5.9349999 4.0780001 -0.90600002
-5.9530001 4.0630002 -0.90600002
-6.027 4.0869999 -0.91799998
-6.0549998 4.0780001 -0.921
-5.9060001 4.0879998 -1.015
-6.112 4.0749998 -0.92799997
-5.9260001 4.177 -0.51200002
-5.9219999 4.1469998 -0.50999999
-5.868 4.0819998 -0.50199997
-5.881 4.0640001 -0.50199997
-5.9050002 4.053 -0.50300002
-5.928 4.0409999 -0.50400001
-5.9949999 4.1139998 -0.24699999
-6.0640001 4.1329999 -0.25099999
-5.915 4.184 -1.4910001
-5.921 4.0780001 -0.32800001
-5.9429998 4.0640001 -1.089
-5.96 4.1090002 -0.77700001
-5.8979998 4.184 -1.094
-5.8920002 4.1389999 0.054000001
-5.8769999 4.1009998 0.055
-5.8930001 4.0840001 0.055
-5.8979998 4.0739999 0.055
-5.927 4.0669999 0.054000001
-5.8049998 4.092 -0.153
-5.8369999 4.0879998 -0.155
-5.8649998 4.0799999 -0.155
-5.8860002 4.0669999 -0.156
-5.908 4.0549998 -0.15700001
-5.882 4.118 -1.086
-5.902 4.0430002 -1.344
-5.8769999 4.1059999 -0.68099999
-5.888 4.0949998 -1.084
-5.8930001 4.178 -1.1569999
-5.8720002 4.1360002 -1.149
-5.8800001 4.0809999 -0.67900002
-5.888 4.092 -1.147
-5.8899999 4.0799999 -1.146
-5.9060001 4.0630002 -1.147
-5.9359999 4.0840001 -0.64399999
-5.8189998 4.0840001 0.229
-5.829 4.0630002 0.229
-5.8330002 4.039 0.229
-5.8559999 4.0279999 0.229
-5.8930001 4.0630002 -0.67900002
-5.8850002 4.1290002 -1.016
-5.8930001 4.1069999 -1.015
-5.8239999 4.0019999 -0.66799998
-5.9060001 4.0609999 -1.013
-5.9219999 4.0450001 -1.013
-5.948 4.0489998 -1.017
-5.9640002 4.0320001 -1.018
-5.9650002 4.052 -1.091
-5.8889999 4.0609999 -1.344
-6.046 4.0630002 -0.833
-5.8369999 4.0910001 -0.2
-5.8319998 4.0599999 -0.199
-6.0879998 4.1690001 -0.433
-5.848 4.0440001 -0.199
-5.829 4.098 -0.71200001
-5.849 4.098 -0.71399999
-5.8569999 4.0760002 -0.713
-5.8520002 4.0450001 -0.71100003
-5.7639999 4.3709998 0.373
-5.6869998 4.2839999 0.37
-5.6760001 4.2620001 0.37
-5.6830001 4.2399998 0.37
-5.6609998 4.1960001 0.36899999
-5.6950002 4.1929998 0.36899999
-5.645 4.1300001 0.368
-5.671 4.1209998 0.368
-5.6849999 4.1040001 0.368
-5.6849999 4.0770001 0.368
-5.664 4.0489998 0.36700001
-5.6900001 4.04 0.36700001
-5.9250002 4.178 0.373
-5.9039998 4.1360002 0.37200001
-5.9180002 4.118 0.37200001
-5.9299998 4.098 0.37200001
-5.941 4.079 0.37200001
-5.9569998 4.0760002 0.373
-5.9000001 4.1669998 -0.37799999
-5.8969998 4.1370001 -0.377
-5.928 4.131 -0.37799999
