# .PCD v0.7 - Point Cloud Data file format
VERSION 0.7
FIELDS x y z
SIZE 4 4 4
TYPE F F F
COUNT 1 1 1
WIDTH 1919
HEIGHT 1
VIEWPOINT 0 0 0 1 0 0 0
POINTS 1919
DATA ascii
-9.533 4.1529999 -1.628
-9.4630003 4.0869999 -1.613
-9.3730001 4.013 -1.594
-9.5120001 4.0370002 -1.617
-9.3889999 3.95 -1.592
-9.3889999 3.9330001 -1.591
-9.5530005 3.9660001 -1.619
-9.4899998 3.905 -1.605
-9.5860004 3.9100001 -1.6210001
-9.618 3.8529999 -1.622
-9.5609999 3.7950001 -1.609
-9.5430002 3.77 -1.605
-9.5439997 3.7360001 -1.603
-9.6339998 3.737 -1.617
-9.7559996 3.6789999 -1.633
-9.7889996 3.6559999 -1.637
-11.2 12.726 -1.569
-11.069 12.497 -1.5420001
-11.149 12.548 -1.552
-11.263 12.596 -1.563
-11.252 12.505 -1.556
-11.233 12.404 -1.546
-11.221 12.313 -1.539
-10.706 11.673 -1.4529999
-10.689 11.58 -1.4450001
-10.767 11.628 -1.454
-10.795 11.585 -1.4529999
-10.838 11.559 -1.454
-10.818 11.465 -1.4450001
-10.798 11.372 -1.437
-10.745 11.244 -1.423
-10.852 11.285 -1.434
-10.975 11.343 -1.447
-10.937 11.267 -1.439
-10.848 11.105 -1.42
-10.77 10.956 -1.403
-10.939 11.058 -1.423
-11.053 11.104 -1.4349999
-10.823 10.804 -1.396
-10.859 10.772 -1.396
-11.122 10.999 -1.432
-10.943 10.753 -1.401
-11.097 10.837 -1.419
-10.967 10.643 -1.395
-11.119 10.723 -1.4119999
-11.186 10.72 -1.4170001
-11.234 10.698 -1.419
-11.26 10.656 -1.418
-11.374 10.73 -1.432
-11.268 10.563 -1.4119999
-11.322 10.547 -1.415
-11.231 10.396 -1.397
-11.277 10.373 -1.399
-11.267 10.298 -1.393
-11.124 10.104 -1.368
-11.029 9.9860001 -1.353
-10.726 9.6479998 -1.306
-10.737 9.5970001 -1.303
-10.81 9.6020002 -1.309
-10.788 9.5220003 -1.302
-10.824 9.493 -1.302
-10.791 9.4040003 -1.294
-10.93 9.4960003 -1.311
-11.702 10.105 -1.414
-10.887 9.3389997 -1.2970001
-10.863 9.2589998 -1.29
-11.527 9.7650003 -1.377
-11.03 9.283 -1.3049999
-11.149 9.3240004 -1.317
-11.076 9.2320004 -1.3049999
-13.719 9.026 -0.52700001
-13.708 8.9879999 -0.52499998
-13.718 8.9320002 -0.52399999
-13.721 8.8730001 -0.523
-11.187 9.0310001 -1.3
-11.272 9.0419998 -1.308
-11.381 9.1000004 -1.321
-11.478 9.1190004 -1.33
-11.31 8.927 -1.304
-11.52 9.0340004 -1.3279999
-11.286 8.7930002 -1.293
-11.523 8.9200001 -1.321
-11.707 9.0039997 -1.341
-11.516 8.8280001 -1.314
-11.378 8.665 -1.2920001
-11.668 8.8290005 -1.327
-11.373 8.5489998 -1.285
-11.767 8.7889996 -1.3329999
-11.62 8.6210003 -1.3099999
-11.746 8.658 -1.323
-11.826 8.6599998 -1.33
-11.817 8.625 -1.327
-11.868 8.6049995 -1.33
-11.706 8.4320002 -1.306
-11.129 7.961 -1.228
-11.173 7.9400001 -1.23
-11.518 7.8369999 -1.2539999
-11.367 7.6810002 -1.232
-11.386 7.6420002 -1.2309999
-11.365 7.6020002 -1.227
-11.322 7.5219998 -1.219
-11.334 7.4790001 -1.217
-11.398 7.4689999 -1.222
-11.385 7.4089999 -1.2180001
-11.051 7.1420002 -1.173
-11.165 7.1659999 -1.1849999
-10.489 6.2290001 -1.073
-10.491 6.1859999 -1.071
-10.517 6.1570001 -1.072
-10.268 5.9879999 -1.04
-10.593 6.1339998 -1.077
-10.447 6.0050001 -1.057
-10.386 5.927 -1.048
-10.309 5.8400002 -1.0369999
-10.394 5.8449998 -1.044
-10.509 5.8670001 -1.056
-10.557 5.8499999 -1.0599999
-10.474 5.7820001 -1.049
-10.649 5.836 -1.067
-10.66 5.7989998 -1.066
-10.484 5.6599998 -1.043
-10.521 5.6370001 -1.046
-10.665 5.6719999 -1.061
-10.969 5.79 -1.094
-10.978 5.7729998 -1.094
-10.953 5.7150002 -1.089
-10.512 5.4419999 -1.035
-10.93 5.6160002 -1.082
-11.008 5.6129999 -1.089
-10.967 5.5479999 -1.0829999
-11.0 5.5219998 -1.084
-11.053 5.527 -1.09
-11.154 5.5339999 -1.099
-11.195 5.5100002 -1.102
-11.171 5.4549999 -1.097
-10.993 5.3249998 -1.075
-11.178 5.3720002 -1.094
-11.268 5.3720002 -1.103
-11.187 5.3109999 -1.092
-11.171 5.2610002 -1.089
-10.923 5.1009998 -1.058
-11.293 5.039 -1.09
-11.283 4.9920001 -1.0880001
-11.093 4.8660002 -1.064
-10.942 4.7579999 -1.045
-11.467 4.9450002 -1.103
-10.954 4.6820002 -1.043
-11.393 4.849 -1.092
-11.503 4.8540001 -1.103
-11.544 4.8280001 -1.1059999
-11.68 4.8429999 -1.12
-11.559 4.75 -1.104
-12.335 5.0250001 -1.1900001
-12.369 4.994 -1.192
-12.531 5.0370002 -1.209
-12.651 5.039 -1.221
-12.69 5.0079999 -1.224
-12.195 4.7680001 -1.166
-9.8339996 5.3850002 -1.4400001
-9.9540005 5.4099998 -1.457
-13.828 8.8940001 -0.43000001
-13.45 9.0609999 0.75700003
-13.533 9.0550003 0.75999999
-13.597 9.0670004 0.76200002
-13.609 9.0129995 0.76099998
-13.62 8.96 0.75999999
-13.839 9.0410004 0.76800001
-13.335 11.94 -1.3380001
-12.472 14.862 -1.228
-12.509 14.811 -1.227
-11.475 13.504 -1.104
-11.582 13.544 -1.112
-11.451 13.306 -1.092
-11.657 13.459 -1.1109999
-11.536 13.236 -1.092
-11.605 13.273 -1.098
-11.399 12.955 -1.0700001
-11.654 13.161 -1.094
-11.766 13.203 -1.102
-11.331 12.637 -1.049
-11.237 12.453 -1.035
-11.355 12.505 -1.043
-11.321 12.428 -1.0369999
-11.463 12.504 -1.048
-11.366 12.322 -1.034
-11.966 12.889 -1.095
-11.854 12.688 -1.0779999
-11.505 12.239 -1.036
-11.421 12.074 -1.023
-11.373 11.947 -1.0140001
-11.332 11.867 -1.008
-11.346 11.807 -1.005
-11.319 11.705 -0.99800003
-11.521 11.84 -1.016
-11.531 11.775 -1.013
-11.506 11.676 -1.006
-11.499 11.596 -1.002
-11.279 11.339 -0.977
-11.347 11.336 -0.98000002
-11.414 11.331 -0.98400003
-11.626 11.469 -1.002
-11.676 11.446 -1.003
-11.756 11.453 -1.008
-11.743 11.369 -1.003
-11.811 11.399 -1.008
-11.599 11.124 -0.98299998
-11.326 10.795 -0.95099998
-11.37 10.769 -0.95200002
-11.354 10.687 -0.94700003
-11.996 11.218 -1.0089999
-14.383 13.359 -1.245
-11.753 10.888 -0.97899997
-13.476 12.324 -1.1440001
-14.472 12.983 -1.2309999
-14.179 12.641 -1.198
-13.984 12.428 -1.177
-14.222 12.56 -1.197
-14.51 12.733 -1.221
-14.893 12.986 -1.255
-14.054 12.178 -1.169
-14.465 12.454 -1.205
-14.394 12.315 -1.194
-14.581 12.435 -1.211
-14.694 12.452 -1.2180001
-13.945 11.744 -1.142
-12.974 10.859 -1.045
-14.033 11.667 -1.143
-14.063 11.618 -1.143
-13.999 11.492 -1.133
-13.46 10.98 -1.0779999
-13.816 11.234 -1.1109999
-13.749 11.108 -1.101
-13.327 10.699 -1.058
-13.551 10.809 -1.076
-14.305 11.335 -1.143
-14.066 11.074 -1.118
-14.184 11.095 -1.126
-13.951 10.878 -1.102
-13.933 10.794 -1.097
-14.038 10.805 -1.104
-14.09 10.774 -1.1059999
-14.049 10.673 -1.099
-14.206 10.722 -1.11
-14.312 10.732 -1.117
-14.033 10.489 -1.09
-14.16 10.514 -1.098
-14.144 10.433 -1.094
-14.374 10.533 -1.112
-14.357 10.452 -1.107
-14.455 10.453 -1.113
-14.364 10.32 -1.102
-14.32 10.254 -1.096
-14.587 10.375 -1.118
-14.615 10.326 -1.117
-11.333 13.209 -1.6160001
-14.999 10.145 -1.133
-14.998 10.075 -1.13
-15.039 10.035 -1.131
-15.146 10.037 -1.137
-15.132 9.96 -1.133
-13.771 9.0360003 -1.012
-13.789 8.9860001 -1.011
-13.805 8.9350004 -1.01
-15.17 9.7480001 -1.127
-15.108 9.6409998 -1.119
-15.059 9.5439997 -1.112
-15.155 9.5380001 -1.118
-12.814 7.573 -0.89499998
-12.885 7.559 -0.89899999
-12.777 7.4429998 -0.88800001
-15.322 8.8549995 -1.103
-13.468 7.7309999 -0.94300002
-13.282 7.5689998 -0.92500001
-12.37 7.026 -0.847
-12.81 7.2210002 -0.88200003
-14.087 7.8800001 -0.98799998
-14.075 7.816 -0.98500001
-14.197 7.8249998 -0.99299997
-14.206 7.7719998 -0.99199998
-14.225 7.724 -0.991
-14.258 7.7129998 -0.99299997
-14.029 7.533 -0.972
-14.217 7.5760002 -0.986
-13.079 6.9200001 -0.889
-13.336 7.0009999 -0.90799999
-12.768 6.6539998 -0.85900003
-13.222 6.836 -0.89499998
-13.089 6.7420001 -0.88300002
-13.016 6.6529999 -0.87599999
-13.295 6.7420001 -0.89700001
-13.471 6.7779999 -0.91000003
-14.601 7.2870002 -1.001
-13.03 6.4549999 -0.87
-14.335 7.0419998 -0.97500002
-14.11 6.9050002 -0.95599997
-14.56 7.0679998 -0.991
-14.557 7.0100002 -0.98900002
-11.998 5.7360001 -0.778
-13.533 6.414 -0.90200001
-15.101 7.0960002 -1.028
-13.378 6.2389998 -0.88599998
-12.466 5.7919998 -0.81099999
-11.103 12.777 -1.567
-13.713 9.0430002 -0.139
-13.706 8.9770002 -0.138
-13.75 8.9429998 -0.139
-13.694 8.8459997 -0.13699999
-11.158 12.758 -1.569
-12.722 10.625 -1.224
-10.084 4.2490001 -1.2
-10.987 12.417 -1.6390001
-11.017 12.372 -1.638
-11.061 12.343 -1.638
-11.075 12.32 -1.638
-11.104 12.275 -1.636
-11.085 12.177 -1.627
-10.744 11.51 -1.546
-10.691 11.418 -1.535
-10.924 11.592 -1.567
-10.979 11.578 -1.5700001
-10.867 11.388 -1.546
-11.021 11.477 -1.5650001
-11.009 11.392 -1.557
-10.975 11.287 -1.546
-10.929 11.168 -1.533
-10.865 11.069 -1.52
-10.851 10.985 -1.513
-10.762 10.827 -1.493
-10.699 10.697 -1.478
-10.876 10.806 -1.501
-10.916 10.777 -1.502
-10.948 10.741 -1.501
-10.972 10.731 -1.502
-11.203 10.887 -1.533
-11.115 10.735 -1.5140001
-11.097 10.651 -1.506
-11.134 10.618 -1.507
-11.151 10.568 -1.5039999
-11.064 10.42 -1.4859999
-11.095 10.417 -1.488
-11.092 10.349 -1.483
-11.135 10.324 -1.484
-11.119 10.244 -1.477
-11.231 10.282 -1.489
-11.129 10.125 -1.469
-10.719 9.6920004 -1.403
-10.745 9.684 -1.405
-10.726 9.6070004 -1.397
-10.798 9.6099997 -1.403
-10.701 9.4639997 -1.385
-10.741 9.4399996 -1.386
-10.682 9.3290005 -1.373
-10.536 9.1429996 -1.347
-10.637 9.2019997 -1.36
-10.801 9.2840004 -1.38
-10.86 9.276 -1.3839999
-10.859 9.2159996 -1.38
-10.889 9.1829996 -1.38
-10.912 9.1440001 -1.3789999
-10.881 9.0600004 -1.3710001
-10.95 9.0880003 -1.378
-10.989 9.0629997 -1.38
-11.106 9.1000004 -1.393
-10.998 8.9549999 -1.373
-11.071 8.9560003 -1.38
-10.952 8.8030005 -1.359
-11.112 8.8739996 -1.377
-10.895 8.6459999 -1.3430001
-10.979 8.684 -1.353
-10.92 8.5819998 -1.341
-11.091 8.6599998 -1.3609999
-11.099 8.6099997 -1.358
-11.133 8.5799999 -1.359
-11.199 8.5749998 -1.365
-11.15 8.4820004 -1.354
-11.235 8.5190001 -1.364
-11.225 8.4560003 -1.359
-11.218 8.3959999 -1.354
-11.242 8.3590002 -1.354
-11.483 8.4820004 -1.3839999
-10.996 8.0699997 -1.313
-10.618 7.743 -1.258
-10.596 7.7010002 -1.253
-10.565 7.6290002 -1.2460001
-10.549 7.5669999 -1.24
-10.48 7.4679999 -1.227
-10.606 7.507 -1.2410001
-11.304 7.658 -1.3150001
-11.368 7.6490002 -1.3200001
-11.44 7.645 -1.326
-11.054 7.3629999 -1.273
-11.235 7.4330001 -1.294
-11.321 7.4390001 -1.303
-11.388 7.4310002 -1.308
-10.6 6.8720002 -1.201
-10.574 6.8080001 -1.1950001
-10.477 6.2010002 -1.151
-10.403 6.1129999 -1.138
-10.262 5.987 -1.118
-10.303 5.9679999 -1.1210001
-10.226 5.902 -1.11
-10.279 5.8899999 -1.114
-10.266 5.8400002 -1.11
-10.403 5.8740001 -1.125
-10.391 5.8249998 -1.1210001
-10.413 5.7940001 -1.122
-10.376 5.7309999 -1.115
-10.378 5.71 -1.114
-10.354 5.6550002 -1.109
-10.359 5.6160002 -1.107
-10.524 5.6620002 -1.126
-10.605 5.6630001 -1.1339999
-10.535 5.5830002 -1.123
-10.677 5.6149998 -1.138
-10.654 5.5819998 -1.1339999
-10.908 5.671 -1.164
-10.832 5.5879998 -1.152
-10.896 5.5780001 -1.158
-10.974 5.5739999 -1.165
-10.758 5.4229999 -1.136
-10.903 5.4530001 -1.152
-10.958 5.4580002 -1.158
-10.897 5.3850002 -1.148
-11.085 5.4349999 -1.169
-11.11 5.4029999 -1.17
-11.057 5.335 -1.1619999
-10.944 5.2389998 -1.146
-10.982 5.2140002 -1.149
-10.914 4.809 -1.123
-11.175 4.882 -1.153
-11.457 4.9619999 -1.1849999
-11.355 4.8759999 -1.171
-11.312 4.8150001 -1.164
-11.252 4.7480001 -1.155
-11.322 4.756 -1.1619999
-11.46 4.7719998 -1.177
-11.688 4.823 -1.2029999
-11.775 4.816 -1.211
-11.641 4.7179999 -1.193
-11.541 4.6360002 -1.1799999
-11.958 4.7589998 -1.228
-11.927 4.7249999 -1.223
-12.516 4.9120002 -1.291
-12.529 4.8720002 -1.291
-13.453 10.393 -1.163
-13.929 9.2729998 0.25999999
-13.628 9.0100002 0.25799999
-13.634 8.9829998 0.25799999
-13.657 8.9370003 0.25799999
-13.988 9.092 0.259
-13.993 8.908 0.259
-14.009 10.408 -1.199
-10.253 3.8900001 -1.2029999
-14.941 9.9429998 -1.239
-11.168 12.934 -1.5829999
-17.016001 12.39 -0.73299998
-12.974 14.279 -0.76499999
-13.136 13.878 -0.75599998
-13.836 13.64 -0.77200001
-13.8 13.519 -0.76700002
-16.443001 12.648 -0.838
-16.429001 12.393 -0.82999998
-16.483999 12.313 -0.82999998
-16.815001 12.477 -0.84799999
-16.931999 12.481 -0.85299999
-16.931999 12.399 -0.85000002
-16.937 12.321 -0.84799999
-17.108 12.364 -0.85600001
-16.966999 12.181 -0.84500003
-17.334999 12.322 -0.86400002
-13.704 9.0209999 -0.62
-13.715 8.967 -0.61900002
-13.778 8.9770002 -0.62199998
-13.947 9.0240002 -0.63099998
-16.243999 10.29 -0.76200002
-16.304001 9.7279997 -0.75
-10.729 11.458 -1.638
-10.619 11.198 -1.607
-10.686 11.233 -1.615
-10.679 11.155 -1.608
-10.666 11.071 -1.6
-10.772 11.112 -1.612
-10.81 11.081 -1.612
-10.786 10.987 -1.603
-10.879 11.013 -1.612
-10.737 10.835 -1.586
-10.788 10.818 -1.589
-10.797 10.759 -1.584
-10.808 10.702 -1.581
-10.864 10.69 -1.584
-10.936 10.694 -1.591
-10.933 10.623 -1.585
-10.85 10.509 -1.568
-10.83 10.424 -1.5599999
-10.776 10.308 -1.546
-10.879 10.341 -1.557
-10.838 10.237 -1.545
-10.89 10.222 -1.549
-10.94 10.204 -1.551
-10.949 10.18 -1.55
-10.641 9.8310003 -1.4960001
-10.643 9.7700005 -1.4910001
-10.656 9.7209997 -1.489
-10.622 9.6280003 -1.478
-10.496 9.4540005 -1.454
-10.527 9.4219999 -1.454
-10.57 9.4309998 -1.4579999
-10.552 9.3549995 -1.451
-10.572 9.3140001 -1.45
-10.516 9.2060003 -1.436
-10.514 9.1459999 -1.431
-10.532 9.1029997 -1.4299999
-10.615 9.1169996 -1.438
-10.642 9.0819998 -1.438
-10.727 9.1260004 -1.449
-10.703 9.0469999 -1.441
-10.72 9.0050001 -1.439
-10.65 8.8879995 -1.424
-10.819 8.9729996 -1.446
-10.834 8.927 -1.444
-10.822 8.8610001 -1.438
-10.882 8.8809996 -1.4450001
-10.985 8.9090004 -1.456
-10.375 8.3579998 -1.36
-10.852 8.6879997 -1.428
-10.263 8.1610003 -1.335
-10.315 8.1499996 -1.339
-10.851 8.5200005 -1.415
-10.95 8.5699997 -1.428
-10.825 8.4169998 -1.405
-10.792 8.3369999 -1.397
-10.609 8.1420002 -1.3660001
-10.584 8.0699997 -1.358
-10.721 8.1219997 -1.375
-10.899 8.2030001 -1.397
-10.983 8.2399998 -1.408
-11.03 8.2209997 -1.411
-11.067 8.1940002 -1.4119999
-10.613 7.8049998 -1.342
-10.412 7.6059999 -1.3099999
-10.538 7.6479998 -1.325
-10.572 7.6220002 -1.326
-10.531 7.5669999 -1.318
-10.286 7.342 -1.28
-10.788 7.3730001 -1.33
-10.826 7.349 -1.332
-10.845 7.3130002 -1.332
-11.048 7.4000001 -1.357
-11.108 7.3889999 -1.362
-11.162 7.375 -1.3660001
-11.184 7.3390002 -1.3660001
-11.087 7.2509999 -1.351
-11.012 7.152 -1.337
-13.694 9.0780001 0.66000003
-13.689 9.0129995 0.65899998
-10.3 6.0599999 -1.199
-13.777 8.9779997 0.66000003
-10.298 5.9720001 -1.194
-10.236 5.8930001 -1.183
-10.022 5.7270002 -1.152
-10.04 5.717 -1.153
-10.092 5.7049999 -1.1569999
-10.145 5.6919999 -1.1619999
-10.107 5.6290002 -1.155
-10.159 5.6170001 -1.159
-10.332 5.6700001 -1.1799999
-10.447 5.691 -1.193
-10.451 5.6719999 -1.192
-10.35 5.5749998 -1.176
-10.318 5.5159998 -1.17
-10.372 5.5029998 -1.175
-10.465 5.5110002 -1.1849999
-10.415 5.4429998 -1.176
-9.9689999 5.1680002 -1.115
-9.8520002 5.0879998 -1.098
-9.8509998 5.0479999 -1.096
-9.9160004 5.0419998 -1.102
-10.711 5.4060001 -1.205
-9.8039999 4.9070001 -1.084
-9.8210001 4.8769999 -1.084
-9.9840002 4.9200001 -1.103
-10.036 4.9260001 -1.109
-9.8199997 4.7810001 -1.079
-10.703 5.1719999 -1.192
-9.9689999 4.777 -1.094
-10.144 4.493 -1.099
-10.047 4.4120002 -1.085
-10.343 4.5240002 -1.122
-10.108 4.3829999 -1.09
-10.161 4.368 -1.095
-10.495 4.473 -1.136
-10.574 4.4679999 -1.1440001
-11.214 4.6989999 -1.224
-11.037 4.5830002 -1.199
-11.202 4.631 -1.219
-11.277 4.6209998 -1.227
-10.471 4.2509999 -1.123
-11.375 4.579 -1.2359999
-11.462 4.572 -1.245
-11.893 4.7020001 -1.2970001
-11.967 4.6869998 -1.3049999
-10.279 4.0040002 -1.092
-10.252 3.9560001 -1.087
-12.518 15.125 -1.374
-12.471 14.973 -1.362
-11.599 13.834 -1.247
-11.65 13.806 -1.248
-11.58 13.68 -1.237
-11.352 13.324 -1.2029999
-11.259 13.131 -1.187
-11.191 12.968 -1.173
-11.251 12.956 -1.176
-11.211 12.827 -1.166
-11.311 12.861 -1.173
-11.274 12.737 -1.164
-11.352 12.785 -1.171
-11.363 12.717 -1.1670001
-11.287 12.552 -1.153
-11.2 12.376 -1.138
-11.308 12.417 -1.146
-11.205 12.225 -1.1289999
-11.301 12.253 -1.136
-11.281 12.193 -1.132
-11.09 11.911 -1.105
-11.191 11.944 -1.112
-11.066 11.736 -1.0930001
-10.966 11.556 -1.077
-11.092 11.616 -1.087
-10.919 11.362 -1.063
-10.902 11.309 -1.059
-11.253 11.601 -1.096
-11.126 11.397 -1.077
-11.101 11.301 -1.0700001
-11.117 11.246 -1.068
-11.144 11.203 -1.067
-11.61 11.6 -1.1160001
-11.363 11.316 -1.086
-11.215 11.098 -1.0650001
-11.332 11.144 -1.074
-11.515 11.254 -1.091
-11.343 11.016 -1.067
-11.11 10.721 -1.038
-11.428 10.959 -1.069
-11.347 10.848 -1.058
-11.653 11.07 -1.0880001
-11.796 11.137 -1.1
-11.837 11.105 -1.101
-11.716 10.922 -1.084
-11.538 10.688 -1.061
-13.458 12.394 -1.267
-14.809 13.599 -1.4119999
-12.141 11.072 -1.117
-14.26 12.929 -1.3430001
-13.434 12.101 -1.249
-13.613 12.185 -1.265
-13.698 12.185 -1.27
-13.783 12.183 -1.275
-13.637 11.977 -1.255
-13.743 12.032 -1.2640001
-13.552 11.79 -1.24
-13.705 11.848 -1.252
-13.587 11.671 -1.2359999
-13.61 11.616 -1.234
-12.642 10.72 -1.1289999
-12.837 10.816 -1.146
-12.975 10.898 -1.158
-12.988 10.839 -1.156
-13.049 10.821 -1.159
-13.201 10.878 -1.171
-13.272 10.867 -1.175
-13.12 10.672 -1.156
-13.427 10.853 -1.184
-13.663 11.009 -1.207
-13.108 10.493 -1.146
-13.676 10.878 -1.201
-13.949 11.024 -1.225
-13.886 10.904 -1.215
-13.812 10.776 -1.204
-13.759 10.665 -1.196
-9.9910002 5.8649998 -1.283
-13.71 10.523 -1.1849999
-13.697 10.445 -1.181
-13.982 10.594 -1.206
-14.178 10.672 -1.223
-14.055 10.51 -1.207
-11.414 12.702 -1.267
-13.557 10.038 -1.152
-13.818 10.164 -1.175
-13.668 9.9879999 -1.1569999
-14.113 10.246 -1.198
-14.238 10.268 -1.207
-14.255 10.213 -1.206
-14.243 10.137 -1.201
-11.272 12.387 -1.239
-14.594 9.9440002 -1.216
-14.676 9.9329996 -1.221
-14.72 9.9289999 -1.223
-14.713 9.8570004 -1.22
-11.256 12.291 -1.232
-12.59 8.316 -1.0089999
-13.185 8.651 -1.064
-13.466 8.776 -1.0880001
-13.732 8.8889999 -1.1109999
-13.057 8.4209995 -1.045
-14.125 9.0489998 -1.145
-11.237 12.117 -1.22
-12.449 7.3249998 -0.958
-12.61 7.3660002 -0.97000003
-12.672 7.3499999 -0.97399998
-12.419 7.1500001 -0.949
-11.966 6.8379998 -0.90499997
-12.121 6.8769999 -0.917
-12.264 6.9070001 -0.92799997
-12.108 6.7940001 -0.91299999
-12.343 6.8759999 -0.93199998
-12.421 6.868 -0.93800002
-12.444 6.8299999 -0.93800002
-12.551 6.8379998 -0.94599998
-12.504 6.7610002 -0.93900001
-12.49 6.7030001 -0.93599999
-13.024 6.9640002 -0.98400003
-12.054 6.3940001 -0.89399999
-12.974 6.8330002 -0.97500002
-12.948 6.7670002 -0.97100002
-12.49 6.4770002 -0.92799997
-12.939 6.6589999 -0.96600002
-12.733 6.5019999 -0.94599998
-13.038 6.632 -0.972
-13.233 6.6799998 -0.98799998
-11.649 5.8309999 -0.84399998
-11.87 5.8959999 -0.86199999
-12.412 6.118 -0.90899998
-12.444 6.085 -0.91000003
-12.499 6.0630002 -0.91299999
-12.243 5.8909998 -0.889
-11.918 5.711 -0.85900003
-12.129 5.7649999 -0.87599999
-12.156 5.7319999 -0.87699997
-11.947 5.586 -0.85699999
-11.883 5.5110002 -0.85000002
-11.061 11.415 -1.165
-10.933 11.212 -1.145
-10.953 11.162 -1.143
-11.264 11.407 -1.177
-10.98 11.051 -1.138
-11.265 11.265 -1.169
-10.972 10.904 -1.1289999
-11.03 10.928 -1.1339999
-11.259 11.084 -1.1569999
-11.117 10.876 -1.136
-11.128 10.819 -1.133
-11.109 10.733 -1.127
-11.245 10.796 -1.1390001
-11.479 10.951 -1.163
-11.28 13.444 -1.632
-13.29 12.051 -1.341
-13.274 11.961 -1.335
-9.9420004 4.3920002 -1.191
-13.23 11.771 -1.321
-13.059 11.547 -1.298
-10.054 4.329 -1.201
-10.152 4.3530002 -1.214
-10.154 4.316 -1.212
-13.759 9.073 -0.22499999
-13.75 9.0050001 -0.22400001
-13.752 8.9449997 -0.223
-13.991 9.0679998 -0.23
-12.574 10.875 -1.228
-12.646 10.868 -1.232
-10.043 4.1570001 -1.191
-10.089 4.1389999 -1.1950001
-10.109 4.1100001 -1.197
-10.343 4.1869998 -1.228
-10.465 4.1989999 -1.243
-10.27 4.0819998 -1.214
-10.277 4.0479999 -1.214
-10.212 3.9849999 -1.2029999
-10.258 3.9660001 -1.207
-10.233 3.9189999 -1.202
-13.15 10.567 -1.249
-10.278 3.881 -1.206
-10.381 3.8829999 -1.2180001
-10.439 3.868 -1.225
-10.427 3.826 -1.221
-10.167 3.694 -1.184
-13.231 10.262 -1.238
-12.375 9.2620001 -1.128
-12.001 6.651 -0.97899997
-13.938 10.058 -1.277
-14.473 9.7340002 -1.298
-12.581 8.3800001 -1.098
-17.031 12.319 -0.73100001
-16.993 12.251 -0.72799999
-17.132 12.27 -0.73400003
-10.829 10.3 -1.636
-10.866 10.27 -1.636
-10.872 10.147 -1.627
-10.676 9.9029999 -1.589
-12.484 8.0080004 -1.074
-10.553 9.6969995 -1.5599999
-10.562 9.6440001 -1.557
-10.464 9.4949999 -1.535
-10.461 9.4320002 -1.53
-10.514 9.4209995 -1.534
-10.563 9.4049997 -1.5369999
-10.429 9.257 -1.513
-10.525 9.283 -1.524
-10.556 9.2510004 -1.524
-10.564 9.1999998 -1.521
-10.546 9.1260004 -1.513
-10.597 9.1120005 -1.517
-10.596 9.0530005 -1.512
-10.596 9.0249996 -1.51
-10.573 8.948 -1.501
-10.607 8.9200001 -1.502
-10.599 8.8559999 -1.4960001
-10.571 8.7770004 -1.488
-10.381 8.5649996 -1.4529999
-10.397 8.5240002 -1.451
-10.609 8.6689997 -1.483
-10.661 8.6560001 -1.487
-10.697 8.6289997 -1.488
-10.551 8.4569998 -1.461
-10.487 8.3520002 -1.447
-10.565 8.3599997 -1.455
-10.436 8.2060003 -1.431
-10.715 8.3970003 -1.472
-10.418 8.1120005 -1.4220001
-11.149 9.2340002 -1.311
-10.453 8.0349998 -1.419
-10.452 7.9809999 -1.415
-10.334 7.8410001 -1.393
-10.365 7.8130002 -1.3940001
-10.406 7.8179998 -1.399
-11.127 9.1569996 -1.304
-10.447 7.7470002 -1.397
-10.341 7.619 -1.378
-10.413 7.6209998 -1.385
-10.5 7.6339998 -1.395
-10.511 7.592 -1.393
-11.164 9.1289997 -1.3049999
-10.45 7.473 -1.378
-10.467 7.4359999 -1.377
-10.555 7.448 -1.387
-11.222 9.1169996 -1.309
-10.744 7.3070002 -1.396
-10.825 7.3119998 -1.405
-10.8 7.2459998 -1.397
-11.0 7.3299999 -1.424
-11.014 7.29 -1.4220001
-10.876 7.1490002 -1.399
-10.736 7.0339999 -1.376
-10.695 6.9590001 -1.367
-10.222 6.6069999 -1.295
-10.33 6.631 -1.308
-10.246 6.0019999 -1.2589999
-10.316 5.9990001 -1.266
-10.307 5.9510002 -1.262
-10.276 5.8899999 -1.255
-10.277 5.869 -1.2539999
-10.152 5.756 -1.233
-10.228 5.757 -1.242
-10.132 5.6609998 -1.226
-10.195 5.6539998 -1.232
-10.079 5.5489998 -1.2130001
-10.134 5.5380001 -1.219
-10.146 5.5240002 -1.219
-10.124 5.4699998 -1.2130001
-10.298 5.5219998 -1.235
-10.214 5.4359999 -1.221
-10.461 5.5250001 -1.253
-10.434 5.4689999 -1.247
-10.508 5.4660001 -1.255
-10.49 5.414 -1.25
-10.59 5.4450002 -1.263
-10.02 5.1129999 -1.182
-9.7819996 4.954 -1.147
-10.614 5.3319998 -1.2589999
-10.588 5.277 -1.253
-10.332 5.1100001 -1.216
-9.7790003 4.8000002 -1.138
-9.6739998 4.73 -1.123
-9.7550001 4.7309999 -1.132
-9.6969995 4.665 -1.122
-9.8529997 4.7020001 -1.141
-10.007 4.414 -1.1440001
-9.9919996 4.3889999 -1.141
-10.113 4.4039998 -1.155
-10.107 4.3629999 -1.152
-10.302 4.408 -1.176
-10.224 4.3369999 -1.164
-10.17 4.277 -1.155
-10.515 4.382 -1.199
-10.142 4.2090001 -1.149
-10.08 4.1469998 -1.1390001
-10.65 4.3410001 -1.2130001
-10.401 4.2020001 -1.178
-10.436 4.178 -1.181
-10.375 4.1160002 -1.171
-10.467 4.1139998 -1.182
-10.328 4.0409999 -1.1619999
-10.37 4.02 -1.166
-10.327 3.9660001 -1.159
-10.317 3.925 -1.156
-10.595 3.9920001 -1.191
-10.878 4.059 -1.226
-11.902 6.3070002 -0.95700002
-13.186 13.806 -0.87699997
-11.891 5.7839999 -0.93599999
-13.745 9.0640001 0.18099999
-13.746 9.033 0.18099999
-13.756 8.9779997 0.18099999
-14.033 9.0959997 0.18099999
-12.838 14.5 -0.89200002
-12.885 14.506 -0.89399999
-12.822 14.254 -0.88099998
-12.874 14.221 -0.88200003
-12.898 14.159 -0.88
-12.863 14.031 -0.87300003
-13.194 14.302 -0.89700001
-12.81 13.841 -0.86299998
-13.302 14.284 -0.90100002
-12.981 13.851 -0.87
-13.066 13.854 -0.87400001
-13.047 13.747 -0.86900002
-10.351 7.7259998 -1.386
-11.702 12.172 -0.75199997
-13.047 13.532 -0.86000001
-13.005 13.404 -0.85299999
-13.894 14.233 -0.92199999
-14.014 14.266 -0.92799997
-11.947 12.004 -0.755
-13.327 13.311 -0.86199999
-13.946 13.843 -0.90799999
-13.779 13.635 -0.89300001
-13.826 13.595 -0.89300001
-13.522 13.212 -0.866
-13.805 13.405 -0.88499999
-13.654 13.174 -0.87
-14.613 14.014 -0.94199997
-14.721 14.029 -0.94700003
-14.89 14.146 -0.958
-15.094 14.25 -0.97100002
-15.295 14.349 -0.98299998
-13.826 11.793 -0.82499999
-13.827 11.719 -0.82200003
-13.874 11.684 -0.82300001
-13.92 11.685 -0.82499999
-13.797 11.508 -0.81300002
-13.932 11.547 -0.81999999
-13.863 11.416 -0.81300002
-16.221001 12.734 -0.963
-16.205999 12.64 -0.95899999
-16.235001 12.58 -0.958
-16.228001 12.494 -0.95499998
-16.259001 12.477 -0.95599997
-16.59 12.649 -0.977
-16.348 12.383 -0.95700002
-16.389 12.333 -0.95700002
-16.471001 12.314 -0.95999998
-16.495001 12.251 -0.95899999
-16.900999 12.471 -0.98500001
-16.957001 12.472 -0.98699999
-14.414 10.527 -0.80599999
-14.618 10.606 -0.81800002
-14.352 10.344 -0.79699999
-17.225 12.338 -0.995
-17.440001 12.41 -1.007
-13.706 8.9870005 -0.72399998
-13.689 8.915 -0.72100002
-13.929 9.0100002 -0.73500001
-15.262 9.7049999 -0.81999999
-16.07 10.15 -0.87199998
-15.823 9.9239998 -0.85299999
-16.1 10.028 -0.87
-15.425 9.5389996 -0.82300001
-16.113001 9.9309998 -0.86699998
-15.782 9.6569996 -0.84299999
-16.039 9.7460003 -0.85799998
-16.127001 9.7309999 -0.86199999
-16.195 9.7030001 -0.86500001
-16.337 9.7180004 -0.87199998
-16.399 9.6850004 -0.87400001
-15.745 9.2650003 -0.82999998
-15.805 9.2329998 -0.83200002
-15.637 8.9379997 -0.815
-15.692 8.7419996 -0.81300002
-10.435 7.487 -1.377
-11.706 7.9229999 -1.188
-11.858 7.9710002 -1.2029999
-11.825 7.895 -1.196
-11.622 7.7080002 -1.17
-11.483 7.5640001 -1.15
-11.557 7.5609999 -1.156
-11.706 7.605 -1.171
-11.982 7.757 -1.202
-11.634 7.4809999 -1.158
-11.466 7.323 -1.136
-10.485 9.6379995 -1.622
-10.515 9.6049995 -1.622
-10.555 9.6110001 -1.627
-10.599 9.5900002 -1.6289999
-10.524 9.4619999 -1.6109999
-10.507 9.3870001 -1.603
-10.462 9.2869997 -1.59
-10.476 9.2410002 -1.587
-10.505 9.2080002 -1.587
-10.497 9.1719999 -1.584
-10.529 9.1420002 -1.584
-10.49 9.0500002 -1.573
-10.52 9.0190001 -1.573
-10.464 8.9130001 -1.559
-10.427 8.8249998 -1.548
-10.408 8.7530003 -1.54
-10.365 8.6890001 -1.531
-10.234 8.5240002 -1.5039999
-10.345 8.5620003 -1.518
-10.399 8.552 -1.523
-10.423 8.5170002 -1.522
-10.502 8.526 -1.531
-10.501 8.4709997 -1.526
-10.52 8.4589996 -1.527
-10.522 8.4060001 -1.523
-10.485 8.323 -1.513
-10.527 8.302 -1.515
-10.531 8.2519999 -1.512
-10.624 8.2709999 -1.523
-10.404 8.0469999 -1.483
-10.3 7.915 -1.462
-10.262 7.8600001 -1.454
-10.361 7.8839998 -1.466
-10.379 7.8470001 -1.465
-10.337 7.7639999 -1.454
-10.332 7.7090001 -1.449
-10.37 7.6869998 -1.452
-10.405 7.6630001 -1.4529999
-10.291 7.553 -1.433
-10.233 7.461 -1.421
-10.31 7.467 -1.429
-10.246 7.3720002 -1.415
-10.403 7.4359999 -1.436
-10.622 6.0139999 -0.99900001
-10.561 7.1789999 -1.434
-10.578 7.1420002 -1.433
-10.56 7.1059999 -1.429
-10.442 6.9780002 -1.4069999
-10.325 6.8530002 -1.386
-10.377 6.8400002 -1.39
-10.426 6.8260002 -1.395
-10.408 6.7670002 -1.3890001
-10.412 6.724 -1.386
-9.5900002 4.4770002 -1.424
-11.541 13.769 -1.3430001
-11.336 13.439 -1.3099999
-11.354 13.376 -1.307
-11.163 13.068 -1.276
-11.226 13.1 -1.2819999
-11.198 12.985 -1.273
-13.742 9.1110001 0.58399999
-13.735 9.0450001 0.583
-13.757 8.9969997 0.583
-13.811 9.0019999 0.58399999
-14.09 9.0570002 0.58999997
-14.347 9.1590004 0.59600002
-9.9650002 5.8080001 -1.276
-9.9350004 5.7480001 -1.2690001
-9.9530001 5.717 -1.2690001
-10.069 5.7420001 -1.283
-10.046 5.6869998 -1.277
-10.055 5.6500001 -1.276
-9.9720001 5.5619998 -1.261
-9.974 5.5430002 -1.26
-10.012 5.5229998 -1.263
-10.116 5.539 -1.276
-10.148 5.5149999 -1.278
-10.078 5.4359999 -1.265
-11.059 11.448 -1.1670001
-10.227 5.414 -1.281
-10.218 5.368 -1.277
-10.173 5.303 -1.268
-10.239 5.2969999 -1.275
-10.456 5.368 -1.304
-9.9350004 5.0599999 -1.227
-10.118 5.1139998 -1.251
-10.04 5.0539999 -1.238
-9.8999996 4.9439998 -1.216
-9.927 4.9190001 -1.2180001
-9.8079996 4.8210001 -1.199
-9.8120003 4.7849998 -1.197
-9.7609997 4.7220001 -1.188
-9.7080002 4.6589999 -1.178
-11.644 11.038 -1.178
-11.779 11.131 -1.192
-11.561 10.857 -1.1619999
-11.589 10.815 -1.1619999
-11.484 10.65 -1.145
-11.461 10.563 -1.1390001
-12.971 11.874 -1.311
-11.438 10.409 -1.128
-9.8070002 4.3000002 -1.443
-9.8789997 4.402 -1.184
-10.217 7.7880001 -1.62
-9.941 4.355 -1.189
-10.017 4.3509998 -1.198
-12.926 11.357 -1.278
-13.009 11.358 -1.284
-12.91 11.236 -1.27
-10.249 7.7620001 -1.622
-10.075 4.2080002 -1.197
-12.868 10.989 -1.2539999
-12.651 10.736 -1.225
-12.621 10.642 -1.2180001
-12.676 10.62 -1.221
-10.248 7.711 -1.617
-12.809 10.629 -1.23
-12.857 10.601 -1.232
-13.023 10.669 -1.2460001
-13.111 10.672 -1.252
-13.103 10.597 -1.248
-10.248 7.6849999 -1.615
-13.037 10.443 -1.235
-13.198 10.504 -1.249
-13.104 10.363 -1.235
-13.4 10.528 -1.2640001
-13.411 10.469 -1.262
-10.269 7.6500001 -1.615
-13.085 10.083 -1.219
-13.178 10.122 -1.227
-13.184 10.061 -1.225
-13.194 10.003 -1.222
-12.317 9.2790003 -1.125
-10.094 7.4699998 -1.58
-13.146 9.7740002 -1.207
-13.35 9.8599997 -1.226
-14.089 10.335 -1.301
-13.517 9.8850002 -1.239
-13.941 10.126 -1.28
-10.094 7.421 -1.575
-12.29 8.8140001 -1.099
-14.094 10.036 -1.286
-14.119 9.9870005 -1.286
-11.142 5.6100001 -1.025
-10.099 7.3759999 -1.572
-14.303 9.6859999 -1.284
-11.117 5.5539999 -1.02
-11.159 7.487 -0.954
-10.105 7.3319998 -1.569
-14.329 9.4750004 -1.276
-12.562 8.2539997 -1.091
-12.46 8.1309996 -1.0779999
-12.61 8.1719999 -1.091
-12.498 8.0439997 -1.077
-10.102 7.2810001 -1.5650001
-12.49 7.9569998 -1.072
-12.087 7.6479998 -1.029
-12.413 7.7989998 -1.059
-11.307 5.5599999 -1.0369999
-10.094 7.2519999 -1.561
-9.8129997 3.9389999 -1.4220001
-10.035 7.1609998 -1.5470001
-12.281 7.2150002 -1.023
-12.33 7.217 -1.027
-12.436 7.2259998 -1.035
-11.981 6.9130001 -0.98799998
-12.335 7.0650001 -1.021
-12.257 6.9689999 -1.011
-11.973 6.7589998 -0.98100001
-11.972 6.7090001 -0.97899997
-11.961 6.678 -0.977
-11.351 5.4710002 -1.0369999
-12.076 6.6430001 -0.98400003
-12.066 6.5879998 -0.98100001
-11.876 6.4369998 -0.95999998
-12.102 6.5089998 -0.98000002
-12.148 6.4850001 -0.98299998
-11.485 5.4910002 -1.05
-11.988 6.3280001 -0.96399999
-12.125 6.3509998 -0.97600001
-12.299 6.3930001 -0.991
-12.386 6.3889999 -0.99699998
-11.403 5.8390002 -0.89999998
-12.17 6.1810002 -0.972
-12.558 6.3280001 -1.008
-12.58 6.3140001 -1.0089999
-11.75 5.8540001 -0.92699999
-11.824 5.8439999 -0.93300003
-11.602 5.6900001 -0.91000003
-11.295 5.3140001 -1.026
-11.559 5.579 -0.90200001
-11.688 5.5949998 -0.91299999
-11.774 5.6139998 -0.92000002
-11.759 5.5619998 -0.917
-11.37 5.3049998 -1.0319999
-11.347 5.2509999 -1.028
-9.9840002 3.5769999 -1.427
-9.9879999 3.543 -1.426
-10.045 3.5280001 -1.434
-9.9910002 3.474 -1.423
-11.996 4.9219999 -1.073
-12.58 5.2069998 -1.05
-12.567 5.1550002 -1.048
-9.8970003 5.5110002 -1.405
-9.9090004 5.4770002 -1.405
-11.364 4.5339999 -0.92400002
-11.313 4.4520001 -0.91600001
-9.8690004 5.2740002 -1.386
-13.71 9.0080004 -0.32100001
-13.694 8.9359999 -0.31900001
-13.917 9.0200005 -0.32600001
-13.765 8.8599997 -0.31999999
-10.66 9.8559999 -1.5829999
-11.404 6.7410002 -1.101
-11.364 11.894 -0.93000001
-10.44 8.0769997 -1.421
-10.472 8.724 -1.6390001
-10.447 8.6759996 -1.632
-10.448 8.6219997 -1.628
-10.478 8.592 -1.628
-10.328 8.415 -1.598
-10.259 8.3050003 -1.581
-10.287 8.2740002 -1.581
-10.313 8.2419996 -1.581
-10.302 8.2069998 -1.577
-10.319 8.1680002 -1.576
-10.322 8.118 -1.572
-10.349 8.0869999 -1.572
-10.348 8.0340004 -1.568
-10.315 7.9559999 -1.558
-10.247 7.8530002 -1.5420001
-10.252 7.8309999 -1.541
-10.328 7.8379998 -1.549
-10.364 7.8140001 -1.551
-10.347 7.75 -1.544
-10.303 7.6669998 -1.533
-10.361 7.6589999 -1.539
-10.354 7.605 -1.533
-10.257 7.5089998 -1.515
-10.221 7.434 -1.505
-10.227 7.3889999 -1.502
-10.247 7.3540001 -1.502
-10.297 7.342 -1.506
-10.546 7.4679999 -1.544
-10.275 6.8039999 -1.4630001
-9.9689999 5.7160001 -1.351
-9.9809999 5.6820002 -1.35
-10.075 5.6929998 -1.362
-10.089 5.6589999 -1.3609999
-9.9580002 5.4840002 -1.334
-9.9840002 5.4569998 -1.335
-10.017 5.434 -1.3380001
-10.135 5.4569998 -1.353
-10.072 5.3010001 -1.336
-10.212 5.3540001 -1.3559999
-10.084 5.2480001 -1.334
-10.046 5.1880002 -1.326
-9.8610001 5.0539999 -1.295
-9.7690001 4.9679999 -1.279
-9.7779999 4.934 -1.278
-9.724 4.869 -1.268
-9.7469997 4.8610001 -1.27
-9.7589998 4.829 -1.2690001
-9.7460003 4.7839999 -1.265
-9.6929998 4.7210002 -1.255
-9.7060003 4.6890001 -1.255
-9.7530003 4.6739998 -1.26
-9.8249998 4.671 -1.268
-9.8070002 4.6430001 -1.2640001
-9.7819996 4.5939999 -1.258
-9.7440004 4.539 -1.251
-10.016 4.4190001 -1.277
-10.059 4.4000001 -1.2819999
-10.039 4.3540001 -1.277
-10.07 4.3299999 -1.279
-10.044 4.2810001 -1.273
-10.018 4.2509999 -1.2690001
-9.9189997 4.1729999 -1.252
-9.8879995 4.1240001 -1.2460001
-9.9139996 4.098 -1.248
-9.8789997 4.0479999 -1.2410001
-9.9099998 4.0240002 -1.243
-10.089 4.059 -1.268
-10.102 4.046 -1.2690001
-10.157 4.0310001 -1.275
-10.172 4.0 -1.275
-10.194 3.971 -1.276
-10.265 3.9619999 -1.285
-10.307 3.941 -1.289
-10.307 3.904 -1.2869999
-10.317 3.8889999 -1.288
-10.312 3.8499999 -1.285
-10.317 3.8150001 -1.284
-10.31 3.776 -1.2819999
-10.124 3.6719999 -1.253
-14.501 12.489 -1.115
-14.862 12.76 -1.146
-13.944 11.894 -1.059
-13.69 8.9969997 0.077
-13.705 8.9449997 0.077
-13.907 9.0150003 0.075000003
-12.496 14.422 -0.97799999
-11.543 13.075 -0.87599999
-11.586 13.04 -0.87599999
-12.85 14.368 -0.99000001
-11.791 13.145 -0.88999999
-12.986 14.382 -0.99599999
-11.843 13.037 -0.88700002
-12.837 14.04 -0.97399998
-13.217 14.364 -1.005
-12.996 14.035 -0.98100001
-12.982 13.977 -0.977
-13.045 13.956 -0.97899997
-12.962 13.78 -0.96799999
-12.949 13.68 -0.963
-13.096 13.749 -0.972
-13.173 13.742 -0.97500002
-13.049 13.529 -0.95999998
-11.815 12.215 -0.84899998
-11.767 12.089 -0.84100002
-11.426 11.666 -0.80699998
-11.524 11.692 -0.81300002
-11.883 11.98 -0.84100002
-11.46 11.483 -0.801
-11.934 11.881 -0.83899999
-13.123 12.979 -0.93900001
-13.184 12.999 -0.94300002
-13.398 13.127 -0.958
-13.518 13.161 -0.96399999
-13.413 12.977 -0.95200002
-12.121 11.657 -0.838
-12.085 11.55 -0.83099997
-12.133 11.523 -0.83200002
-14.725 13.933 -1.051
-12.036 11.253 -0.81699997
-14.78 13.383 -1.031
-14.758 13.321 -1.027
-13.876 11.795 -0.92400002
-13.945 11.779 -0.92699999
-15.024 12.607 -1.011
-15.039 12.539 -1.0089999
-15.082 12.535 -1.01
-13.829 11.423 -0.90700001
-13.852 11.369 -0.90600002
-15.086 12.3 -1.001
-13.841 11.215 -0.89899999
-15.042 12.108 -0.99199998
-15.119 12.092 -0.995
-15.757 12.56 -1.044
-15.779 12.497 -1.0420001
-15.65 12.315 -1.029
-16.306999 12.748 -1.0779999
-16.363001 12.709 -1.079
-15.398 11.885 -1.001
-15.299 11.732 -0.99000001
-15.272 11.673 -0.986
-15.378 11.678 -0.99199998
-15.455 11.659 -0.995
-15.33 11.49 -0.98199999
-14.225 10.594 -0.89499998
-15.538 11.494 -0.99299997
-14.275 10.493 -0.89300001
-14.57 10.674 -0.91500002
-14.781 10.757 -0.92799997
-16.009001 11.571 -1.0190001
-14.667 10.534 -0.91399997
-14.65 10.452 -0.91100001
-14.723 10.435 -0.91399997
-16.184 11.391 -1.022
-16.535999 11.028 -1.027
-16.238001 10.756 -1.002
-16.556999 10.892 -1.023
-13.771 9.0030003 -0.815
-13.769 8.9399996 -0.81300002
-13.814 8.908 -0.81400001
-15.168 9.677 -0.91000003
-15.239 9.6549997 -0.91299999
-15.078 9.4870005 -0.89899999
-15.252 9.5290003 -0.91000003
-15.3 9.493 -0.91100001
-15.249 9.3950005 -0.90499997
-15.721 9.6169996 -0.93699998
-15.612 9.5170002 -0.92799997
-15.595 9.4399996 -0.92500001
-15.49 9.3100004 -0.91500002
-15.455 9.2229996 -0.91100001
-15.874 9.4049997 -0.93900001
-16.153999 9.5010004 -0.95700002
-16.069 9.3839998 -0.94800001
-14.616 8.5080004 -0.84399998
-14.647 8.4639997 -0.84399998
-14.746 8.4589996 -0.84899998
-14.757 8.4040003 -0.84799999
-15.098 8.5349998 -0.87
-15.659 8.7869997 -0.90799999
-14.851 8.1820002 -0.84600002
-16.093 8.7980003 -0.93199998
-16.249001 8.8170004 -0.94099998
-14.921 8.0380001 -0.84600002
-16.458 8.7959995 -0.95200002
-16.341999 8.6689997 -0.94199997
-14.559 7.6680002 -0.815
-14.608 7.6059999 -0.81599998
-14.738 7.6149998 -0.824
-14.639 7.506 -0.815
-14.57 7.355 -0.80699998
-11.346 13.588 -1.426
-11.417 13.586 -1.4299999
-11.395 13.474 -1.421
-11.364 13.351 -1.41
-11.207 13.082 -1.382
-11.363 13.182 -1.399
-11.349 13.123 -1.3940001
-11.179 12.844 -1.364
-11.041 12.604 -1.339
-11.026 12.508 -1.332
-11.103 12.515 -1.337
-11.08 12.41 -1.3279999
-11.197 12.463 -1.339
-11.24 12.472 -1.342
-11.356 12.521 -1.353
-11.289 12.369 -1.3380001
-11.099 12.084 -1.307
-11.043 11.946 -1.294
-11.114 11.948 -1.299
-10.987 11.737 -1.277
-11.011 11.725 -1.277
-10.822 11.452 -1.247
-10.894 11.455 -1.252
-10.959 11.451 -1.256
-10.948 11.368 -1.25
-11.012 11.363 -1.253
-11.001 11.28 -1.247
-10.965 11.173 -1.238
-11.08 11.255 -1.251
-11.074 11.178 -1.245
-10.988 11.021 -1.229
-11.176 11.14 -1.249
-11.142 11.036 -1.24
-11.022 10.849 -1.22
-10.915 10.676 -1.202
-11.106 10.829 -1.225
-11.308 10.958 -1.2460001
-11.452 11.027 -1.26
-11.351 10.862 -1.243
-11.404 10.844 -1.245
-11.58 10.942 -1.263
-11.596 10.889 -1.261
-12.305 11.52 -1.348
-11.345 10.552 -1.223
-11.445 10.579 -1.2309999
-12.237 11.242 -1.326
-12.528 11.437 -1.358
-12.723 11.47 -1.374
-12.354 11.101 -1.326
-11.918 10.641 -1.268
-12.007 10.652 -1.274
-12.198 10.755 -1.294
-12.397 10.861 -1.314
-12.464 10.851 -1.318
-12.419 10.744 -1.308
-12.459 10.744 -1.311
-12.47 10.685 -1.308
-12.516 10.656 -1.3099999
-12.558 10.624 -1.311
-12.591 10.585 -1.311
-12.586 10.513 -1.306
-12.572 10.434 -1.301
-12.676 10.487 -1.311
-12.825 10.543 -1.325
-12.874 10.516 -1.327
-11.617 9.4250002 -1.174
-12.875 10.382 -1.319
-12.923 10.354 -1.321
-13.038 10.379 -1.331
-12.863 10.173 -1.306
-12.843 10.125 -1.302
-12.881 10.089 -1.303
-12.92 10.055 -1.304
-12.983 10.039 -1.307
-12.868 9.8850002 -1.29
-12.828 9.79 -1.2819999
-12.773 9.684 -1.272
-13.21 9.9840002 -1.321
-13.555 10.179 -1.357
-11.889 8.8649998 -1.1619999
-12.298 9.1120005 -1.206
-13.054 9.6110001 -1.289
-13.431 9.8240004 -1.3279999
-12.055 8.7559996 -1.169
-12.243 8.8640003 -1.188
-12.109 8.7089996 -1.17
-12.224 8.7329998 -1.1799999
-12.357 8.4530001 -1.175
-12.453 8.4610004 -1.183
-12.483 8.4239998 -1.183
-11.683 7.829 -1.092
-12.123 8.0699997 -1.138
-11.943 7.9229999 -1.1160001
-12.295 8.1020002 -1.152
-12.361 8.0889997 -1.1569999
-12.425 8.0749998 -1.161
-12.405 8.007 -1.156
-11.783 7.552 -1.085
-12.295 7.8270001 -1.1390001
-11.888 7.54 -1.0930001
-11.844 7.0250001 -1.0650001
-10.596 6.237 -0.92900002
-10.634 6.2140002 -0.93099999
-11.956 6.9400001 -1.0700001
-11.821 6.8119998 -1.053
-11.759 6.7519999 -1.045
-12.016 6.8000002 -1.068
-11.833 6.6459999 -1.046
-11.76 6.5570002 -1.0369999
-11.806 6.5339999 -1.039
-11.562 6.3509998 -1.011
-11.788 6.4520001 -1.034
-11.523 6.2589998 -1.0039999
-10.757 5.7969999 -0.92199999
-11.389 6.0929999 -0.986
-11.455 6.0830002 -0.991
-11.712 6.1719999 -1.016
-11.506 6.0170002 -0.99199998
-11.42 5.9489999 -0.98299998
-11.709 6.0539999 -1.011
-11.315 5.8039999 -0.96799999
-11.28 5.7410002 -0.96200001
-11.549 5.8330002 -0.98799998
-11.361 5.6929998 -0.96700001
-11.378 5.6570001 -0.96700001
-11.676 5.783 -0.99699998
-11.412 5.6069999 -0.96799999
-11.453 5.5819998 -0.97000003
-11.485 5.553 -0.972
-11.488 5.5100002 -0.97000003
-11.462 5.454 -0.96600002
-11.456 5.4060001 -0.963
-11.383 5.3499999 -0.95499998
-12.021 5.3540001 -1.0089999
-12.139 5.362 -1.0190001
-11.959 5.237 -0.99900001
-11.76 5.105 -0.977
-12.284 5.2880001 -1.028
-12.394 5.29 -1.038
-11.641 4.9229999 -0.96100003
-11.835 4.9400001 -0.97799999
-9.7740002 5.5229998 -1.391
-9.8830004 5.5440001 -1.406
-11.319 4.598 -0.92199999
-11.335 4.5640001 -0.92199999
-9.7270002 5.336 -1.372
-11.415 4.513 -0.92699999
-9.9840002 5.3759999 -1.4069999
-11.468 4.4710002 -0.93000001
-9.8830004 5.2420001 -1.386
-9.8120003 5.164 -1.3710001
-9.816 5.1269999 -1.37
-9.6149998 4.9829998 -1.335
-9.6260004 4.9699998 -1.335
-9.8599997 5.052 -1.37
-9.8070002 4.9860001 -1.359
-9.7919998 4.9390001 -1.354
-9.7270002 4.868 -1.341
-9.7030001 4.8179998 -1.335
-9.6929998 4.7750001 -1.331
-9.6899996 4.7540002 -1.33
-9.6049995 4.6750002 -1.314
-9.5970001 4.6339998 -1.3099999
-9.6490002 4.6220002 -1.316
-9.6739998 4.5960002 -1.318
-9.8149996 4.6259999 -1.3380001
-9.5679998 4.4720001 -1.2970001
-9.9219999 4.3940001 -1.3380001
-9.9460001 4.3860002 -1.341
-10.007 4.3759999 -1.348
-10.083 4.3709998 -1.357
-10.16 4.3670001 -1.367
-10.045 4.2800002 -1.347
-10.051 4.2449999 -1.346
-9.9510002 4.1659999 -1.329
-9.9659996 4.1539998 -1.33
-9.9940004 4.1290002 -1.3329999
-10.106 4.138 -1.348
-10.071 4.0869999 -1.34
-9.9189997 3.9879999 -1.3150001
-10.012 3.9890001 -1.327
-10.012 3.9530001 -1.326
-10.114 3.957 -1.339
-10.049 3.9130001 -1.3279999
-10.083 3.8900001 -1.332
-10.08 3.852 -1.329
-10.263 3.8859999 -1.355
-10.138 3.802 -1.334
-10.22 3.796 -1.345
-10.23 3.763 -1.345
-10.232 3.7460001 -1.344
-10.201 3.698 -1.3380001
-10.088 3.6210001 -1.319
-10.047 3.5699999 -1.311
-11.257 13.331 -1.6210001
-13.679 9.0319996 0.45699999
-13.697 8.9820004 0.45699999
-13.943 9.0819998 0.461
-14.162 9.0670004 0.46399999
-14.42 9.1689997 0.46799999
-14.253 8.9989996 0.46399999
-11.287 13.282 -1.619
-11.333 13.251 -1.62
-10.094 7.401 -1.63
-10.109 7.3639998 -1.6289999
-10.127 7.329 -1.628
-10.047 7.223 -1.609
-10.009 7.1719999 -1.6
-10.212 7.2680001 -1.633
-10.066 7.118 -1.603
-9.7189999 5.7049999 -1.448
-9.7399998 5.677 -1.449
-9.743 5.6370001 -1.446
-9.8269997 5.645 -1.457
-9.8120003 5.5960002 -1.452
-9.7989998 5.5669999 -1.448
-9.7989998 5.527 -1.4450001
-9.8260002 5.5019999 -1.447
-9.8439999 5.4710002 -1.447
-9.8400002 5.4289999 -1.443
-13.742 9.0229998 -0.43000001
-13.738 8.9589996 -0.428
-13.798 8.9370003 -0.43000001
-9.7370005 5.2329998 -1.4170001
-9.7290001 5.1900001 -1.4119999
-9.8100004 5.1929998 -1.423
-9.8170004 5.158 -1.4220001
-9.7139997 5.0650001 -1.402
-9.8859997 5.1149998 -1.428
-9.8290005 5.066 -1.4170001
-9.8590002 5.0419998 -1.419
-9.7510004 4.9489999 -1.399
-9.7989998 4.934 -1.404
-9.6300001 4.8119998 -1.374
-9.6789999 4.7979999 -1.38
-9.6940002 4.7680001 -1.38
-9.6070004 4.7069998 -1.365
-9.5609999 4.6469998 -1.355
-9.5950003 4.6269999 -1.358
-9.6009998 4.592 -1.3559999
-9.6169996 4.5630002 -1.357
-9.6689997 4.5500002 -1.363
-9.6969995 4.526 -1.365
-9.5609999 4.4450002 -1.342
-9.8100004 4.3369999 -1.369
-9.8500004 4.3179998 -1.373
-9.8149996 4.2839999 -1.3660001
-9.8599997 4.2670002 -1.3710001
-9.8800001 4.2389998 -1.372
-9.8520002 4.1900001 -1.3660001
-9.8900003 4.1700001 -1.37
-9.8780003 4.1279998 -1.3660001
-9.9020004 4.1020002 -1.367
-9.8830004 4.0760002 -1.363
-9.9980001 4.086 -1.38
-9.9980001 4.0500002 -1.378
-9.9060001 3.977 -1.3609999
-10.047 3.9960001 -1.381
-9.9549999 3.924 -1.365
-9.9519997 3.8870001 -1.362
-9.9540005 3.869 -1.362
-9.9440002 3.8299999 -1.358
-9.9619999 3.8010001 -1.359
-9.9420004 3.757 -1.354
-10.082 3.7739999 -1.374
-10.086 3.7390001 -1.373
-10.067 3.6960001 -1.368
-10.087 3.6860001 -1.3710001
-10.123 3.6630001 -1.374
-10.155 3.638 -1.378
-10.286 3.648 -1.396
-10.316 3.586 -1.397
-11.383 13.522 -1.536
-11.408 13.509 -1.5369999
-11.456 13.479 -1.5369999
-11.067 12.94 -1.472
-10.994 12.774 -1.455
-11.345 13.097 -1.502
-11.288 12.949 -1.487
-11.09 12.643 -1.452
-11.107 12.623 -1.451
-11.189 12.635 -1.4579999
-11.14 12.501 -1.444
-11.199 12.488 -1.447
-11.26 12.476 -1.451
-11.312 12.455 -1.452
-11.268 12.329 -1.4400001
-10.855 11.803 -1.375
-10.82 11.729 -1.367
-11.129 11.987 -1.406
-10.916 11.684 -1.37
-10.589 11.265 -1.318
-10.7 11.311 -1.329
-10.761 11.305 -1.3329999
-10.825 11.335 -1.339
-10.802 11.241 -1.331
-10.843 11.213 -1.332
-10.853 11.153 -1.3279999
-10.732 10.96 -1.306
-10.843 11.004 -1.317
-10.809 10.901 -1.308
-10.857 10.915 -1.312
-11.025 11.014 -1.33
-10.774 10.696 -1.291
-10.824 10.679 -1.293
-10.858 10.645 -1.293
-10.991 10.708 -1.307
-11.281 10.921 -1.342
-11.399 10.965 -1.353
-11.264 10.801 -1.3329999
-11.143 10.619 -1.312
-11.097 10.509 -1.301
-11.108 10.454 -1.298
-11.09 10.371 -1.291
-11.146 10.358 -1.294
-11.398 10.525 -1.324
-11.749 10.814 -1.368
-11.465 10.488 -1.326
-11.595 10.54 -1.339
-11.519 10.405 -1.324
-11.492 10.315 -1.317
-11.559 10.31 -1.321
-11.6 10.281 -1.322
-11.801 10.393 -1.344
-11.669 10.245 -1.325
-12.044 10.506 -1.37
-12.053 10.447 -1.3660001
-12.051 10.379 -1.362
-12.118 10.371 -1.3660001
-12.236 10.405 -1.377
-12.439 10.51 -1.399
-12.48 10.511 -1.402
-11.1 9.2939997 -1.222
-11.172 9.2939997 -1.227
-12.529 10.353 -1.396
-12.6 10.345 -1.401
-12.71 10.368 -1.411
-12.693 10.288 -1.405
-11.608 9.3809996 -1.266
-11.801 9.4750004 -1.286
-12.477 9.9519997 -1.367
-11.622 9.2139997 -1.257
-11.957 9.4169998 -1.295
-11.792 9.2270002 -1.27
-11.937 9.2799997 -1.285
-11.547 8.9490004 -1.235
-11.993 9.2340002 -1.286
-11.911 9.1120005 -1.273
-13.049 9.9139996 -1.409
-13.002 9.8140001 -1.4
-12.072 9.0550003 -1.2819999
-11.739 8.7489996 -1.238
-12.194 9.0570002 -1.2920001
-11.956 8.823 -1.2589999
-11.765 8.6260004 -1.233
-11.749 8.5570002 -1.227
-12.183 8.8140001 -1.277
-12.288 8.8310003 -1.286
-12.084 8.6269999 -1.258
-12.081 8.5970001 -1.256
-12.018 8.4960003 -1.245
-9.8990002 5.836 -1.563
-9.8579998 5.7919998 -1.554
-9.7740002 5.7010002 -1.536
-9.8039999 5.677 -1.538
-9.7600002 5.6100001 -1.527
-9.7930002 5.5890002 -1.53
-9.7679996 5.533 -1.522
-9.823 5.5240002 -1.529
-9.8369999 5.5110002 -1.53
-9.8850002 5.4980001 -1.535
-9.8299999 5.427 -1.523
-9.8170004 5.3790002 -1.517
-9.7770004 5.3169999 -1.507
-11.584 7.3470001 -1.147
-9.7840004 5.2220001 -1.501
-9.6969995 5.1360002 -1.484
-9.7270002 5.1129999 -1.4859999
-9.71 5.0650001 -1.48
-9.7519999 5.0479999 -1.485
-9.5900002 4.9260001 -1.454
-9.5439997 4.8639998 -1.444
-9.552 4.849 -1.444
-9.4809999 4.7750001 -1.429
-9.4209995 4.7080002 -1.416
-9.4379997 4.6789999 -1.416
-9.5129995 4.6789999 -1.427
-10.699 6.2360001 -1.016
-9.5600004 4.6279998 -1.4299999
-9.5710001 4.5970001 -1.429
-10.906 6.2189999 -1.033
-9.5799999 4.5450001 -1.427
-9.6280003 4.5310001 -1.433
-10.793 6.0430002 -1.015
-10.986 6.105 -1.034
-10.661 5.882 -0.99599999
-10.631 5.822 -0.99000001
-10.866 5.9060001 -1.0140001
-10.907 5.8839998 -1.017
-10.953 5.8870001 -1.021
-9.8260002 4.3449998 -1.448
-10.953 5.7979999 -1.017
-9.7259998 4.2280002 -1.427
-9.7340002 4.1950002 -1.426
-9.7659998 4.1900001 -1.431
-9.7720003 4.1570001 -1.429
-9.6379995 4.0630002 -1.405
-9.7720003 4.0840001 -1.425
-9.7629995 4.0450001 -1.421
-9.8030005 4.0250001 -1.426
-9.8999996 4.0289998 -1.4400001
-9.8629999 3.9949999 -1.433
-11.305 5.5149999 -1.035
-9.7519999 3.8789999 -1.41
-9.8260002 3.8729999 -1.421
-9.8330002 3.8399999 -1.42
-9.7930002 3.789 -1.411
-9.9309998 3.8069999 -1.432
-9.9180002 3.7839999 -1.429
-9.717 3.6719999 -1.3940001
-9.7159996 3.6370001 -1.392
-9.8509998 3.652 -1.4119999
-9.8959999 3.6340001 -1.418
-9.9259996 3.609 -1.421
-10.276 3.701 -1.476
-11.337 5.0110002 -1.017
-11.355 4.9759998 -1.017
-11.571 5.027 -1.039
-11.464 4.9590001 -1.027
-11.152 4.7839999 -0.99199998
-11.684 4.967 -1.0470001
-11.727 4.9419999 -1.05
-11.61 4.8499999 -1.036
-11.364 4.7059999 -1.008
-10.892 6.3940001 -1.04
-11.367 4.645 -1.006
-12.444 5.0370002 -1.118
-12.299 4.9330001 -1.101
-11.546 4.5910001 -1.02
-12.227 4.816 -1.091
-12.302 4.8010001 -1.097
-11.393 6.5900002 -1.092
-12.405 14.693 -1.1210001
-12.439 14.64 -1.12
-12.34 14.431 -1.104
-12.198 14.174 -1.085
-12.213 14.146 -1.084
-12.228 14.074 -1.081
-11.705 13.385 -1.021
-11.622 13.205 -1.008
-11.622 13.123 -1.0039999
-11.673 13.096 -1.005
-11.63 12.966 -0.99599999
-11.329 12.59 -0.963
-11.517 12.718 -0.97799999
-11.481 12.598 -0.97100002
-11.699 12.758 -0.98900002
-11.847 12.838 -1.0
-11.958 12.877 -1.007
-11.789 12.615 -0.986
-11.996 12.757 -1.003
-11.311 11.988 -0.93199998
-11.513 12.126 -0.94800001
-10.451 6.0040002 -0.98400003
-11.388 11.843 -0.92799997
-11.594 11.983 -0.94499999
-11.544 11.856 -0.93599999
-11.531 11.768 -0.93099999
-11.383 11.581 -0.91500002
-11.303 11.427 -0.90399998
-11.558 11.612 -0.92500001
-11.589 11.57 -0.92500001
-11.429 11.338 -0.90600002
-11.602 11.438 -0.91900003
-11.624 11.388 -0.917
-12.767 12.433 -1.024
-12.816 12.442 -1.027
-11.641 11.227 -0.91100001
-12.087 11.586 -0.94999999
-12.107 11.531 -0.94800001
-11.299 10.692 -0.86799997
-13.132 12.354 -1.038
-13.867 12.965 -1.104
-14.189 13.226 -1.132
-14.365 13.306 -1.145
-14.591 13.431 -1.1619999
-14.788 13.527 -1.177
-13.856 12.395 -1.077
-14.318 12.728 -1.1160001
-13.7 9.0019999 -0.024
-13.782 8.9940004 -0.025
-13.892 9.0030003 -0.026000001
-13.771 8.8640003 -0.024
-14.492 12.284 -1.105
-14.81 12.474 -1.13
-13.741 11.498 -1.031
-14.964 12.445 -1.137
-14.005 11.57 -1.048
-13.892 11.44 -1.036
-13.902 11.375 -1.034
-14.165 11.517 -1.054
-13.312 10.752 -0.97500002
-15.065 12.094 -1.127
-15.195 12.12 -1.135
-14.852 11.77 -1.102
-14.202 11.217 -1.043
-14.125 11.084 -1.033
-14.224 11.09 -1.039
-14.26 11.046 -1.039
-14.347 11.042 -1.043
-14.339 10.964 -1.04
-14.31 10.87 -1.034
-14.38 10.853 -1.0369999
-14.305 10.761 -1.029
-14.329 10.708 -1.029
