# .PCD v0.7 - Point Cloud Data file format
VERSION 0.7
FIELDS x y z
SIZE 4 4 4
TYPE F F F
COUNT 1 1 1
WIDTH 623
HEIGHT 1
VIEWPOINT 0 0 0 1 0 0 0
POINTS 623
DATA ascii
-6.8319998 4.3039999 -0.74599999
-7.197 4.256 -0.77899998
-7.0100002 4.4029999 -0.56
-7.0320001 4.3860002 -0.56099999
-7.0219998 4.349 -0.55800003
-7.0339999 4.3260002 -0.55800003
-7.0700002 4.3169999 -0.56
-7.0760002 4.2909999 -0.56
-7.092 4.2849998 -0.56099999
-7.1139998 4.2680001 -0.56199998
-7.0500002 4.3769999 -0.46399999
-7.1500001 4.7129998 -1.0140001
-7.1259999 4.6810002 -1.0089999
-7.1160002 4.6420002 -1.005
-6.8299999 4.4239998 -0.954
-6.8639998 4.415 -0.95700002
-6.9330001 4.4289999 -0.96600002
-6.9640002 4.4180002 -0.96899998
-6.9860001 4.401 -0.97100002
-6.9860001 4.3860002 -0.96899998
-6.9949999 4.3610001 -0.96899998
-7.0019999 4.335 -0.96700001
-7.9400001 3.6619999 -0.60299999
-7.9439998 3.6340001 -0.602
-7.9590001 3.6110001 -0.602
-8.0299997 3.6129999 -0.60799998
-7.9759998 3.5580001 -0.602
-7.1110001 4.2350001 -0.97299999
-7.0479999 4.1669998 -0.96100003
-6.9809999 4.0970001 -0.94800001
-6.9889998 4.072 -0.94700003
-7.0009999 4.0500002 -0.94700003
-7.0240002 4.0339999 -0.94800001
-7.0320001 4.0089998 -0.94800001
-7.0780001 4.0209999 -0.954
-7.0999999 4.2399998 -0.46200001
-7.3309999 3.984 -0.98299998
-7.9130001 3.678 -1.0369999
-7.9120002 3.648 -1.035
-7.9159999 3.6199999 -1.034
-7.9169998 3.5899999 -1.0319999
-7.9330001 3.5669999 -1.033
-7.9749999 3.556 -1.038
-7.9580002 3.6500001 0.296
-7.9439998 3.6140001 0.29499999
-7.9559999 3.589 0.29499999
-7.9699998 3.5799999 0.296
-8.1239996 3.618 0.29699999
-8.132 3.5910001 0.29699999
-8.151 3.569 0.29699999
-8.1560001 3.5409999 0.29699999
-8.4300003 3.6270001 0.30000001
-7.9130001 3.6570001 -0.28999999
-7.901 3.6210001 -0.289
-7.8759999 3.5799999 -0.28600001
-7.8639998 3.559 -0.285
-8.033 3.6059999 -0.29499999
-7.1739998 4.7550001 -1.1210001
-7.1719999 4.7220001 -1.118
-7.1900001 4.7020001 -1.119
-6.9190001 4.2410002 -0.89600003
-6.8600001 4.4229999 -1.053
-6.9130001 4.4419999 -1.061
-6.9520001 4.4359999 -1.066
-6.9640002 4.4130001 -1.066
-6.9679999 4.3850002 -1.064
-7.007 4.1300001 -0.898
-6.9959998 4.3410001 -1.064
-7.2620001 4.6339998 -0.699
-7.0159998 4.323 -1.0650001
-7.0209999 4.3109999 -1.0650001
-7.0009999 4.4359999 -0.66500002
-7.1729999 3.9879999 -0.90799999
-6.9429998 4.368 -0.65600002
-6.9330001 4.3010001 -0.65100002
-7.671 3.677 0.33700001
-7.6729999 3.6630001 0.33700001
-7.6989999 3.6459999 0.33700001
-7.6849999 3.6099999 0.33700001
-7.743 3.608 0.338
-7.8509998 3.628 0.33899999
-7.8860002 3.615 0.34
-7.9060001 3.5940001 0.34
-7.934 3.592 0.34
-7.934 3.562 0.34
-8.1020002 3.6070001 0.34299999
-8.1009998 3.576 0.34200001
-8.1149998 3.552 0.34200001
-8.1160002 3.5220001 0.34200001
-8.1389999 3.5020001 0.34200001
-8.1470003 3.49 0.34299999
-8.1630001 3.467 0.34299999
-7.9349999 3.635 -0.235
-7.934 3.605 -0.234
-7.9450002 3.5799999 -0.234
-7.941 3.5480001 -0.233
-6.789 4.3579998 -0.833
-6.8130002 4.3429999 -0.83399999
-6.9450002 4.3979998 -0.852
-6.9310002 4.3579998 -0.84799999
-6.8169999 4.256 -0.829
-6.835 4.2379999 -0.829
-6.8299999 4.2049999 -0.82700002
-6.835 4.1929998 -0.82599998
-6.8649998 4.1820002 -0.829
-6.9819999 4.448 -1.271
-6.9619999 4.4050002 -1.2640001
-6.9580002 4.3870001 -1.262
-6.96 4.3579998 -1.26
-7.1209998 4.1869998 -0.85699999
-6.9770002 4.3080001 -1.258
-6.9920001 4.2870002 -1.258
-7.0089998 4.2670002 -1.2589999
-7.0100002 4.2379999 -1.256
-6.8870001 4.1479998 -1.2309999
-7.3499999 4.0430002 -1.289
-7.3600001 4.0339999 -1.29
-7.3779998 4.013 -1.291
-7.3699999 3.9790001 -1.2869999
-7.3600001 3.8840001 -1.278
-7.3769999 3.8640001 -1.279
-7.3499999 3.835 -1.273
-7.3600001 3.8110001 -1.273
-7.362 3.7820001 -1.271
-7.3839998 3.7650001 -1.273
-7.3909998 3.7390001 -1.272
-7.381 3.7049999 -1.268
-7.3959999 3.6830001 -1.268
-7.9330001 3.6760001 -1.349
-7.9250002 3.642 -1.346
-7.9190001 3.609 -1.342
-7.934 3.586 -1.3430001
-7.9699998 3.572 -1.348
-7.9850001 3.549 -1.348
-7.9439998 3.7909999 -0.92699999
-7.9229999 3.7509999 -0.92199999
-7.7519999 3.6389999 -0.89600003
-7.9000001 3.6789999 -0.91500002
-7.8660002 3.6329999 -0.90899998
-7.8709998 3.605 -0.90799999
-7.882 3.5810001 -0.90799999
-7.8969998 3.572 -0.90899998
-7.7410002 3.7420001 0.40400001
-7.7020001 3.6930001 0.403
-7.6700001 3.6489999 0.40200001
-7.4990001 3.539 0.39700001
-7.7150002 3.6099999 0.40200001
-7.9219999 3.6010001 0.40599999
-7.9710002 3.5929999 0.40700001
-8.0190001 3.5840001 0.40799999
-8.1669998 3.6199999 0.412
-8.1590004 3.585 0.41100001
-8.1639996 3.572 0.41100001
-8.1739998 3.546 0.41100001
-8.198 3.526 0.412
-8.2180004 3.5039999 0.412
-8.2360001 3.4809999 0.412
-8.2539997 3.4579999 0.412
-8.2709999 3.4349999 0.412
-7.0570002 4.4159999 -0.51499999
-7.0539999 4.3839998 -0.51300001
-7.0419998 4.3460002 -0.50999999
-7.0370002 4.3270001 -0.509
-7.0710001 4.3179998 -0.51099998
-7.0830002 4.2940001 -0.51099998
-7.1209998 4.2859998 -0.51300001
-7.1560001 4.277 -0.51599997
-7.1799998 4.2610002 -0.51700002
-7.8740001 3.7030001 -0.54699999
-7.8730001 3.6730001 -0.546
-7.9559999 3.651 -0.551
-7.948 3.582 -0.184
-7.993 3.572 -0.186
-8.1789999 3.675 -0.56999999
-7.9569998 3.546 -0.54799998
-7.9650002 3.5190001 -0.54699999
-7.967 3.49 -0.54699999
-8.0050001 3.477 -0.54900002
-6.9829998 4.2270002 -0.65200001
-7.2859998 4.349 -0.685
-7.27 4.678 -0.81199998
-6.9619999 4.448 -0.76700002
-6.8649998 4.3559999 -0.75199997
-7.9299998 3.6600001 0.022
-6.849 4.2849998 -0.74599999
-6.8790002 4.289 -0.74900001
-6.8889999 4.2649999 -0.74900001
-6.9089999 4.2480001 -0.75
-6.9349999 4.2329998 -0.75099999
-6.9650002 4.2220001 -0.75400001
-7.0430002 4.2389998 -0.76300001
-7.066 4.223 -0.764
-7.098 4.2270002 -0.76700002
-7.9429998 3.641 -0.71200001
-7.9380002 3.609 -0.70999998
-7.9380002 3.579 -0.70899999
-7.9590001 3.573 -0.70999998
-7.441 3.9760001 -0.88
-7.9559999 3.7750001 -0.83099997
-7.9390001 3.737 -0.82700002
-7.8590002 3.6689999 -0.81599998
-7.915 3.665 -0.82099998
-7.8940001 3.6400001 -0.81800002
-7.8940001 3.6099999 -0.81699997
-7.9109998 3.5880001 -0.81699997
-7.9330001 3.5680001 -0.81900001
-7.9629998 3.5510001 -0.82099998
-7.7059999 3.757 0.44400001
-7.7270002 3.737 0.44400001
-7.6240001 3.6570001 0.44100001
-7.6240001 3.628 0.44100001
-7.4569998 3.5190001 0.435
-7.5970001 3.484 0.43799999
-7.7459998 3.523 0.442
-7.8460002 3.539 0.44499999
-7.8390002 3.506 0.44499999
-7.8330002 3.474 0.44400001
-8.1020002 3.549 0.45199999
-8.1280003 3.53 0.45199999
-8.1479998 3.5079999 0.45199999
-8.1569996 3.4820001 0.45199999
-8.1719999 3.4579999 0.45199999
-8.2060003 3.4419999 0.45300001
-8.0620003 3.3510001 0.449
-7.079 4.2909999 -0.97399998
-7.105 4.276 -0.97600001
-7.1129999 4.2659998 -0.97600001
-7.1929998 4.7470002 -1.061
-7.1919999 4.73 -1.059
-7.2179999 4.7150002 -1.061
-6.8889999 4.4710002 -1.001
-6.8610001 4.4219999 -0.99400002
-6.9200001 4.4299998 -1.002
-6.9439998 4.414 -1.0039999
-6.9850001 4.4089999 -1.008
-6.993 4.3839998 -1.007
-6.993 4.369 -1.006
-6.9970002 4.3410001 -1.005
-7.0120001 4.3200002 -1.005
-7.0339999 4.303 -1.006
-7.0599999 4.2880001 -1.008
-7.0749998 4.2670002 -1.0089999
-7.1020002 4.2519999 -1.011
-7.1290002 4.2529998 -1.0140001
-7.1799998 4.2529998 -1.021
-7.342 3.983 -1.022
-7.9520001 3.671 -1.081
-7.9169998 3.625 -1.074
-7.9419999 3.6070001 -1.076
-7.9590001 3.5840001 -1.077
-7.9879999 3.5669999 -1.08
-7.388 3.73 -1.575
-7.7319999 3.7179999 0.49900001
-7.6890001 3.668 0.49700001
-7.6589999 3.6389999 0.49599999
-7.9580002 3.6500001 -0.134
-7.9689999 3.625 -0.134
-7.9749999 3.598 -0.133
-7.9970002 3.592 -0.134
-7.6750002 3.5 0.49399999
-7.6900001 3.477 0.495
-7.6719999 3.4549999 0.49399999
-7.6599998 3.421 0.493
-7.8540001 3.477 0.5
-7.8720002 3.4560001 0.5
-8.1750002 3.4960001 0.50999999
-8.2189999 3.484 0.51099998
-8.217 3.4679999 0.51099998
-8.2580004 3.4549999 0.51200002
-8.2720003 3.4300001 0.51200002
-8.3570004 3.434 0.51499999
-8.4029999 3.4219999 0.51599997
-7.3280001 4.8670001 -1.436
-7.401 4.7989998 -1.4400001
-7.1069999 4.4990001 -1.368
-7.0760002 4.4489999 -1.358
-6.9980001 4.369 -1.339
-7.0029998 4.342 -1.337
-7.006 4.3140001 -1.335
-7.006 4.2839999 -1.332
-7.0219998 4.263 -1.3329999
-7.0320001 4.2540002 -1.3329999
-7.052 4.2360001 -1.335
-7.0869999 4.2270002 -1.339
-7.3709998 4.072 -1.369
-7.3920002 4.0539999 -1.3710001
-7.3530002 3.957 -1.357
-7.3740001 3.9389999 -1.358
-7.362 3.9030001 -1.354
-7.3649998 3.846 -1.349
-7.3709998 3.8340001 -1.349
-7.283 3.76 -1.329
-7.4109998 3.6070001 -1.337
-7.4060001 3.576 -1.334
-7.4169998 3.553 -1.334
-7.4229999 3.527 -1.3329999
-7.914 3.652 -1.4220001
-7.9239998 3.6270001 -1.421
-7.9250002 3.5969999 -1.419
-7.9359999 3.572 -1.419
-7.9699998 3.5569999 -1.424
-7.9850001 3.549 -1.426
-7.0219998 4.2480001 -0.85000002
-7.0279999 4.2220001 -0.84899998
-7.0599999 4.211 -0.852
-7.0650001 4.1830001 -0.85100001
-6.9720001 4.335 -1.2589999
-7.48 3.526 0.48899999
-7.691 3.595 0.49599999
-7.0669999 4.4809999 -0.47
-7.0710001 4.4520001 -0.46900001
-7.066 4.4180002 -0.46700001
-7.6890001 3.5650001 0.49599999
-7.0510001 4.3470001 -0.463
-7.0310001 4.3200002 -0.461
-7.0409999 4.2950001 -0.46000001
-7.0669999 4.2800002 -0.46200001
-7.0939999 4.2670002 -0.463
-7.6880002 3.5350001 0.495
-7.0170002 4.3140001 -0.96799999
-7.9439998 3.645 -0.5
-7.9629998 3.6229999 -0.50099999
-7.947 3.6010001 -0.49900001
-8.0050001 3.5969999 -0.50300002
-8.2969999 3.698 -0.52700001
-7.0370002 4.296 -0.96899998
-7.9310002 3.6440001 -0.075000003
-7.9299998 3.6129999 -0.075000003
-7.9429998 3.589 -0.075000003
-7.941 3.573 -0.074000001
-7.3699999 4.9460001 -1.372
-7.9109998 3.549 -0.91000003
-7.5120001 4.9990001 -1.543
-7.3099999 4.8299999 -1.494
-7.3759999 4.8410001 -1.506
-7.401 4.8239999 -1.508
-7.316 4.7519999 -1.488
-7.3080001 4.7140002 -1.482
-7.3410001 4.7030001 -1.4859999
-7.1199999 4.5289998 -1.4349999
-7.085 4.4749999 -1.424
-7.092 4.4489999 -1.4220001
-7.0879998 4.415 -1.418
-6.9910002 4.3239999 -1.3940001
-6.9860001 4.3060002 -1.392
-6.987 4.276 -1.3890001
-7.0019999 4.2550001 -1.3890001
-7.0170002 4.2340002 -1.39
-7.0300002 4.2119999 -1.39
-6.9349999 4.125 -1.367
-7.0830002 4.1830001 -1.396
-7.3579998 4.0999999 -1.432
-7.3759999 4.0799999 -1.433
-7.3400002 3.97 -1.4170001
-7.3590002 3.951 -1.419
-7.3649998 3.9389999 -1.419
-7.3410001 3.8369999 -1.406
-7.3629999 3.8199999 -1.408
-7.3140001 3.7650001 -1.396
-7.4130001 3.526 -1.392
-7.3969998 3.49 -1.387
-7.4169998 3.471 -1.3890001
-7.8559999 3.6470001 -1.476
-7.8969998 3.6370001 -1.482
-7.9099998 3.628 -1.484
-7.9229999 3.6040001 -1.484
-7.9219999 3.573 -1.4809999
-7.948 3.5550001 -1.484
-7.9860001 3.5420001 -1.49
-7.9679999 3.658 -0.024
-7.9809999 3.6340001 -0.024
-7.9910002 3.608 -0.024
-8.0150003 3.589 -0.024
-7.3280001 4.8839998 -1.36
-7.1230001 4.4679999 -0.41800001
-7.1160002 4.448 -0.417
-7.0949998 4.4039998 -0.414
-7.0970001 4.3740001 -0.41299999
-7.0999999 4.3460002 -0.412
-7.1220002 4.329 -0.412
-7.1440001 4.3109999 -0.41299999
-7.1900001 4.3080001 -0.41600001
-7.2140002 4.7529998 -0.96600002
-7.2069998 4.7160001 -0.963
-7.2329998 4.7010002 -0.96399999
-7.263 4.6880002 -0.96700001
-6.8730001 4.408 -0.90200001
-6.8449998 4.375 -0.89700001
-6.882 4.368 -0.89999998
-7.0219998 4.4250002 -0.92000002
-7.0409999 4.4060001 -0.921
-7.0139999 4.3590002 -0.91500002
-6.9159999 4.2690001 -0.89700001
-6.8260002 4.4310002 -1.049
-6.9180002 4.2249999 -0.89399999
-6.9380002 4.2069998 -0.89499998
-6.9460001 4.1820002 -0.89399999
-6.9619999 4.1620002 -0.89499998
-6.98 4.1430001 -0.89600003
-6.98 4.362 -1.063
-6.9720001 4.0799999 -0.88999999
-7.0539999 4.112 -0.90200001
-7.0749998 4.0949998 -0.90399998
-7.0700002 4.3109999 -1.071
-7.0830002 4.289 -1.071
-7.1290002 4.2859998 -1.077
-7.1630001 4.276 -1.08
-7.165 3.9979999 -0.90799999
-8.0310001 3.711 -0.44999999
-7.947 3.642 -0.442
-7.9159999 3.598 -0.43900001
-8.1610003 3.677 -0.458
-8.1409998 3.638 -0.45500001
-7.3850002 3.954 -0.93099999
-7.3940001 3.984 -1.089
-7.0450001 4.4489999 -0.61799997
-7.0 4.3899999 -0.611
-6.9899998 4.3540001 -0.60900003
-6.9720001 4.3270001 -0.60600001
-6.9749999 4.2989998 -0.60399997
-6.9850001 4.2750001 -0.60399997
-7.0170002 4.2639999 -0.60600001
-7.0630002 4.2620001 -0.61000001
-7.2030001 4.3150001 -0.62400001
-7.2509999 4.3119998 -0.62800002
-7.9910002 3.697 -0.98900002
-7.9629998 3.654 -0.98299998
-7.9619999 3.6229999 -0.98100001
-7.9679999 3.596 -0.98000002
-7.994 3.592 -0.98299998
-8.0139999 3.5710001 -0.98400003
-7.9289999 3.6659999 -1.141
-7.928 3.635 -1.1390001
-7.9390001 3.6099999 -1.1390001
-7.9450002 3.598 -1.1390001
-7.987 3.5869999 -1.1440001
-7.994 3.5599999 -1.143
-7.9749999 3.6689999 -0.662
-7.8559999 3.5999999 -0.648
-7.8649998 3.5739999 -0.648
-7.8969998 3.5580001 -0.64999998
-8.0769997 3.608 -0.66900003
-7.9289999 3.6289999 0.022
-7.948 3.6070001 0.022
-7.9369998 3.572 0.023
-7.9959998 3.569 0.022
-7.3150001 4.829 -1.573
-7.3299999 4.8060002 -1.573
-7.3449998 4.783 -1.573
-7.3800001 4.7729998 -1.577
-7.4159999 4.763 -1.582
-7.1339998 4.52 -1.511
-7.1069999 4.4879999 -1.503
-7.0999999 4.4520001 -1.498
-7.1240001 4.4359999 -1.5
-7.0890002 4.3839998 -1.489
-7.007 4.303 -1.4680001
-7.007 4.2729998 -1.465
-7.0170002 4.2490001 -1.464
-7.0219998 4.237 -1.4630001
-7.0689998 4.2350001 -1.471
-7.0960002 4.2210002 -1.474
-7.2670002 4.2909999 -1.5089999
-7.415 4.3460002 -1.539
-7.401 4.3070002 -1.533
-7.4889998 4.2480001 -1.543
-7.5089998 4.2290001 -1.544
-7.4060001 4.1399999 -1.518
-7.401 4.1069999 -1.5140001
-7.414 4.0689998 -1.513
-7.3969998 4.0289998 -1.506
-7.3920002 3.997 -1.503
-7.3850002 3.8010001 -1.484
-7.4460001 3.802 -1.494
-7.3899999 3.744 -1.479
-7.4629998 3.4909999 -1.471
-7.4590001 3.461 -1.4680001
-7.7470002 3.5639999 -1.527
-7.9320002 3.618 -1.563
-7.954 3.598 -1.566
-7.967 3.5739999 -1.566
-7.9920001 3.5550001 -1.569
-6.875 4.3930001 -0.80199999
-6.8559999 4.3509998 -0.79799998
-6.8569999 4.3210001 -0.796
-6.921 4.3460002 -0.80400002
-6.8839998 4.2930002 -0.79699999
-6.8920002 4.2680001 -0.796
-6.914 4.2509999 -0.79699999
-6.9250002 4.2290001 -0.79699999
-7.053 4.2750001 -0.81300002
-7.066 4.2529998 -0.81300002
-7.0739999 4.243 -0.81400001
-7.098 4.2270002 -0.815
-7.1350002 4.2189999 -0.81800002
-7.9029999 3.628 0.083999999
-7.901 3.5969999 0.083999999
-7.901 3.582 0.083999999
-7.9229999 3.562 0.083999999
-7.974 3.78 -0.884
-7.9629998 3.744 -0.88099998
-8.1820002 3.8150001 -0.90899998
-7.9429998 3.6889999 -0.87599999
-7.9250002 3.651 -0.87199998
-7.9369998 3.6259999 -0.87199998
-7.9530001 3.6040001 -0.87300003
-7.9629998 3.5780001 -0.87300003
-7.9889998 3.559 -0.87400001
-7.8959999 3.619 -0.396
-7.9039998 3.5929999 -0.39500001
-7.7919998 3.5120001 -0.38600001
-8.0880003 3.6159999 -0.40700001
-7.2989998 4.6760001 -0.76200002
-7.0780001 4.52 -0.73199999
-6.9910002 4.434 -0.71799999
-6.96 4.3839998 -0.71200001
-6.9070001 4.3210001 -0.704
-6.9499998 4.3169999 -0.708
-6.9390001 4.2810001 -0.70499998
-6.9780002 4.2740002 -0.708
-7.0040002 4.2600002 -0.70899999
-7.0310001 4.2610002 -0.71200001
-7.0700002 4.2540002 -0.71499997
-7.1570001 4.276 -0.72500002
-7.9429998 3.6500001 0.13699999
-7.9180002 3.609 0.13699999
-7.9349999 3.6010001 0.13699999
-7.9369998 3.572 0.13699999
-7.9879999 3.7850001 -0.78100002
-7.9910002 3.756 -0.77899998
-7.8379998 3.655 -0.759
-7.9330001 3.668 -0.76999998
-7.9429998 3.6429999 -0.76899999
-7.974 3.6270001 -0.77200001
-7.9489999 3.585 -0.76700002
-7.96 3.575 -0.76800001
-7.0819998 4.4250002 -0.37200001
-7.0619998 4.381 -0.37
-7.9359999 3.6070001 -0.184
-7.0760002 4.3590002 -0.37
-7.0689998 4.3239999 -0.368
-7.086 4.3039999 -0.368
-7.1799998 4.2839999 -0.373
-7.0960002 4.546 -1.6059999
-7.0840001 4.506 -1.599
-7.0949998 4.4819999 -1.599
-7.092 4.4489999 -1.595
-7.0900002 4.4169998 -1.591
-6.974 4.3140001 -1.559
-6.9840002 4.3049998 -1.5599999
-6.9889998 4.2779999 -1.558
-7.0079999 4.2589998 -1.559
-7.0209999 4.237 -1.559
-7.0630002 4.2319999 -1.566
-7.1500001 4.2540002 -1.584
-7.3590002 4.348 -1.63
-7.3670001 4.3369999 -1.631
-7.3839998 4.316 -1.632
-7.3889999 4.2880001 -1.63
-7.375 4.2490001 -1.623
-7.3699999 4.2150002 -1.619
-7.3660002 4.1820002 -1.615
-7.3759999 4.1570001 -1.614
-7.3730001 4.0489998 -1.603
-7.3639998 4.013 -1.597
-7.3709998 3.987 -1.596
-7.342 3.721 -1.566
-7.9419999 3.6140001 -0.54900002
-7.3720002 3.6930001 -1.568
-7.4330001 3.694 -1.58
-7.5359998 3.4979999 -1.581
-7.4130001 3.4119999 -1.551
-7.671 3.503 -1.607
-7.908 3.5840001 -0.54500002
-6.9330001 4.3309999 -0.653
-7.9819999 3.664 0.193
-7.9780002 3.6329999 0.193
-7.9819999 3.6040001 0.193
-8.0100002 3.5869999 0.193
-6.941 4.276 -0.65100002
-6.928 4.2379999 -0.64700001
-6.9699998 4.2490001 -0.65200001
-7.105 4.2849998 -0.36899999
-7.1360002 4.2880001 -0.37099999
-8.0220003 3.6900001 -0.34400001
-7.9460001 3.625 -0.338
-7.9590001 3.6010001 -0.338
-7.9429998 3.579 -0.336
-8.1890001 3.658 -0.352
-7.29 4.888 -1.268
-7.3439999 4.8920002 -1.276
-7.3270001 4.8470001 -1.27
-7.3319998 4.8169999 -1.268
-7.3390002 4.789 -1.266
-7.3260002 4.7649999 -1.262
-6.9660001 4.4699998 -1.189
-6.9689999 4.441 -1.187
-6.9590001 4.4039998 -1.182
-6.9549999 4.3709998 -1.179
-6.9650002 4.3470001 -1.178
-6.9629998 4.3309999 -1.177
-6.9850001 4.3140001 -1.178
-6.994 4.289 -1.177
-7.0159998 4.2719998 -1.179
-7.0190001 4.244 -1.177
-7.1430001 4.2870002 -1.197
-7.362 3.99 -1.204
-7.3460002 3.937 -1.198
-7.3600001 3.914 -1.198
-7.3569999 3.8829999 -1.196
-7.506 3.931 -1.22
-7.3579998 3.7950001 -1.189
-7.4169998 3.796 -1.198
-7.868 3.6270001 0.234
-7.8740001 3.5999999 0.234
-7.8699999 3.5680001 0.234
-7.8850002 3.5450001 0.234
-7.9359999 3.6600001 -1.262
-7.9239998 3.6389999 -1.2589999
-7.914 3.6040001 -1.256
-7.9120002 3.5739999 -1.253
-7.947 3.559 -1.257
-7.9619999 3.536 -1.258
