# .PCD v0.7 - Point Cloud Data file format
VERSION 0.7
FIELDS x y z
SIZE 4 4 4
TYPE F F F
COUNT 1 1 1
WIDTH 1284
HEIGHT 1
VIEWPOINT 0 0 0 1 0 0 0
POINTS 1284
DATA ascii
-33.560001 11.456 0.31900001
-33.505001 11.32 0.31799999
-33.449001 11.184 0.31799999
-33.202999 10.986 0.317
-33.087002 10.832 0.317
-33.053001 10.706 0.31600001
-32.960999 10.619 0.31600001
-32.91 10.489 0.31600001
-32.856998 10.358 0.315
-32.806 10.229 0.315
-32.75 10.098 0.315
-32.691002 9.9680004 0.315
-32.639999 9.8400002 0.31400001
-32.569 9.7629995 0.31400001
-32.516998 9.6359997 0.31400001
-32.424999 9.4980001 0.31299999
-32.41 9.3830004 0.31299999
-32.523998 9.3050003 0.31299999
-32.537998 9.1990004 0.31299999
-32.478001 9.0719995 0.31299999
-32.409 8.9980001 0.31299999
-32.345001 8.8699999 0.31299999
-32.284 8.7449999 0.31200001
-32.220001 8.6190004 0.31200001
-32.158001 8.4940004 0.31200001
-31.945 8.3299999 0.31099999
-31.756001 8.1739998 0.31
-31.701 8.1070004 0.31
-31.653 7.9889998 0.31
-31.591999 7.868 0.30899999
-31.533001 7.7480001 0.30899999
-31.429001 7.618 0.30899999
-31.4 7.506 0.30899999
-31.329 7.3850002 0.308
-31.261999 7.2659998 0.308
-31.193001 7.198 0.308
-31.113001 7.0760002 0.30700001
-31.063999 6.9629998 0.30700001
-31.016001 6.8499999 0.30700001
-30.936001 6.73 0.30700001
-30.914 6.6240001 0.30599999
-30.954 6.5310001 0.30700001
-31.068001 6.5040002 0.30700001
-31.031 6.3940001 0.30700001
-30.973 6.2810001 0.30599999
-30.877001 6.1599998 0.30599999
-30.843 6.053 0.30599999
-30.771 5.9380002 0.30599999
-30.698 5.8239999 0.30500001
-30.608 5.757 0.30500001
-30.507999 5.6389999 0.30500001
-30.117001 5.4689999 0.303
-30.056999 5.3600001 0.303
-29.995001 5.2519999 0.303
-29.909 5.1399999 0.30199999
-29.84 5.0320001 0.30199999
-29.759001 4.9699998 0.30199999
-29.681999 4.8610001 0.30199999
-29.608 4.7529998 0.301
-29.540001 4.6469998 0.301
-29.454 4.539 0.301
-29.385 4.434 0.30000001
-29.320999 4.3299999 0.30000001
-29.233 4.27 0.30000001
-29.160999 4.1659999 0.30000001
-29.083 4.0609999 0.29899999
-29.086 3.9690001 0.29899999
-29.177 3.888 0.30000001
-29.164 3.793 0.30000001
-29.073999 3.688 0.29899999
-29.004 3.5869999 0.29899999
-28.917 3.53 0.29899999
-30.049999 5.1680002 -0.97100002
-31.277 7.0760002 -0.63200003
-29.957001 5.1040001 -0.96700001
-31.07 6.7729998 -0.625
-29.903999 4.9980001 -0.96499997
-30.209999 5.3909998 -0.97899997
-31.024 6.2030001 -0.62
-31.094999 6.5380001 -1.21
-29.819 4.888 -0.96100003
-30.865999 5.9710002 -0.61500001
-31.153999 7.1149998 -1.2180001
-34.348 13.744 0.58099997
-34.278999 13.654 0.57999998
-34.227001 13.509 0.579
-34.07 13.324 0.57700002
-34.139 13.227 0.57700002
-34.083 13.083 0.57599998
-34.037998 12.943 0.57499999
-34.004002 12.808 0.574
-33.914001 12.713 0.57300001
-33.875999 12.578 0.57200003
-33.82 12.436 0.57099998
-33.779999 12.301 0.56999999
-33.700001 12.153 0.56900001
-33.807999 12.072 0.56999999
-33.728001 11.924 0.56900001
-34.164001 11.957 0.57300001
-33.493999 11.429 0.565
-33.733002 11.392 0.56699997
-33.195999 10.864 0.56
-33.122002 10.782 0.55900002
-33.068001 10.65 0.55800003
-33.007999 10.516 0.55699998
-32.949001 10.383 0.55599999
-32.886002 10.25 0.55500001
-32.835999 10.121 0.55400002
-32.792999 9.9960003 0.55400002
-32.709 9.9139996 0.55299997
-32.650002 9.7840004 0.55199999
-32.602001 9.658 0.551
-32.528 9.526 0.55000001
-32.494999 9.4049997 0.54900002
-32.574001 9.3170004 0.55000001
-32.460999 9.1750002 0.54799998
-32.868 9.2340002 0.55199999
-32.280998 8.7419996 0.54500002
-32.421001 8.6709995 0.546
-31.847 8.25 0.54000002
-31.802999 8.132 0.53899997
-31.743 8.0109997 0.53799999
-31.674999 7.888 0.537
-31.624001 7.77 0.53600001
-31.035999 6.8850002 -1.595
-31.472 7.5229998 0.53399998
-31.423 7.46 0.53399998
-31.334999 7.335 0.53200001
-31.298 7.223 0.53200001
-31.219 7.1009998 0.53100002
-31.155001 6.9840002 0.52999997
-31.094999 6.868 0.52899998
-31.034 6.7529998 0.528
-30.959 6.6849999 0.52700001
-31.049999 6.6030002 0.528
-31.155001 6.5229998 0.52899998
-31.114 6.4120002 0.528
-31.038 6.2950001 0.52700001
-31.004999 6.1869998 0.52700001
-30.93 6.0710001 0.52600002
-30.857 5.9559999 0.52499998
-30.768 5.8889999 0.52399999
-30.721001 5.7800002 0.523
-30.641001 5.6659999 0.52200001
-30.239 5.494 0.51800001
-30.143999 5.3790002 0.51700002
-30.094 5.2719998 0.51599997
-30.032 5.164 0.51499999
-29.4 4.4169998 -1.478
-29.327 4.3119998 -1.473
-29.271 4.21 -1.469
-29.702 4.7719998 0.51099998
-29.631001 4.6659999 0.50999999
-29.580999 4.5619998 0.50999999
-29.469999 4.4510002 0.50800002
-29.403999 4.3940001 0.50800002
-29.313 4.2859998 0.50700003
-29.82 4.8509998 -0.583
-29.181 4.0799999 0.505
-29.146 3.9820001 0.50400001
-29.219999 3.898 0.505
-29.514999 3.8429999 0.50800002
-29.422001 3.7839999 0.50700003
-29.624001 3.7149999 0.509
-28.974001 3.4489999 0.50199997
-29.395 4.2620001 -0.56999999
-29.757999 4.9029999 -1.502
-29.250999 4.0539999 -0.565
-29.969999 5.178 -1.149
-29.186001 3.9990001 -0.56300002
-29.239 4.0879998 -0.93400002
-30.129 5.2909999 -0.59299999
-29.693001 4.796 -1.498
-30.079 5.27 -0.97299999
-28.966 3.691 -0.55699998
-28.816 3.4879999 -0.55199999
-29.580999 4.585 -1.128
-29.277 4.2199998 1.021
-29.834999 5.0120001 -1.508
-29.622999 4.6890001 -1.493
-29.377001 4.296 -0.94099998
-29.118 3.9990001 -1.104
-29.549 4.5819998 -1.488
-29.299999 4.1900001 -0.93699998
-33.875 12.578 -1.189
-29.598 4.5910001 0.66299999
-29.476999 4.5240002 -1.483
-28.728001 3.441 -1.0829999
-34.307999 13.713 0.76999998
-34.268002 13.572 0.76800001
-34.236 13.435 0.76700002
-34.091 13.255 0.764
-34.125 13.145 0.764
-34.082001 13.005 0.76300001
-34.008999 12.916 0.76099998
-33.964001 12.777 0.75999999
-33.918999 12.639 0.75800002
-33.875999 12.502 0.75700003
-33.828999 12.363 0.75599998
-33.764 12.22 0.75400001
-33.709 12.08 0.75199997
-33.797001 12.052 0.75400001
-34.098999 12.039 0.75800002
-34.219002 11.961 0.759
-34.289001 11.864 0.75999999
-33.688999 11.538 0.74900001
-33.846001 11.473 0.75099999
-33.916 11.378 0.75199997
-33.166 10.952 0.73900002
-33.151001 10.832 0.73799998
-33.101002 10.7 0.73699999
-33.049 10.569 0.736
-32.988998 10.435 0.73400003
-32.938999 10.306 0.73299998
-32.860001 10.224 0.73100001
-32.807999 10.095 0.73000002
-32.755001 9.9659996 0.72899997
-32.688999 9.8339996 0.727
-32.640999 9.7080002 0.72600001
-32.583 9.5790005 0.72399998
-32.505001 9.4449997 0.72299999
-32.462002 9.3780003 0.722
-32.577999 9.3000002 0.72299999
-32.819 9.2580004 0.72600001
-32.910999 9.1730003 0.727
-32.998001 9.085 0.72799999
-32.563999 8.7449999 0.72100002
-32.477001 8.6129999 0.71899998
-31.829 8.2799997 0.708
-31.802 8.1660004 0.70700002
-31.752001 8.0469999 0.70599997
-31.707001 7.9299998 0.70499998
-31.655001 7.8109999 0.704
-31.618999 7.697 0.70300001
-31.481001 7.6110001 0.69999999
-34.137001 13.395 -1.638
-33.870998 13.169 -1.6210001
-31.318001 7.2589998 0.69700003
-34.009998 13.038 -1.625
-33.978001 12.904 -1.6210001
-33.928001 12.763 -1.617
-33.865002 12.618 -1.6109999
-33.811001 12.477 -1.6059999
-33.775002 12.344 -1.602
-33.719002 12.263 -1.598
-30.799 6.3779998 0.68599999
-30.721001 6.2610002 0.685
-30.66 6.1479998 0.68300003
-30.597 6.086 0.68199998
-30.545 5.9759998 0.68099999
-30.487 5.8649998 0.68000001
-30.437 5.756 0.67900002
-33.203999 11.082 -1.554
-33.178001 10.958 -1.551
-33.101002 10.817 -1.545
-33.041 10.683 -1.54
-32.988998 10.552 -1.535
-32.944 10.423 -1.531
-32.894001 10.351 -1.528
-29.851999 4.9190001 0.66799998
-32.632999 9.8199997 -1.508
-32.591999 9.6960001 -1.5039999
-32.513 9.5620003 -1.498
-29.514999 4.5310001 0.662
-32.321999 9.2309999 -1.484
-32.321999 9.1210003 -1.483
-29.292999 4.2140002 0.65799999
-29.221001 4.1100001 0.65700001
-29.139999 4.0050001 0.65499997
-32.103001 8.5710001 -1.465
-29.222 3.8759999 0.65600002
-29.105 3.7679999 0.65399998
-29.514 3.727 0.66000003
-29.681999 3.654 0.66299999
-31.535999 7.7340002 -1.427
-31.395 7.4910002 -1.4170001
-31.211 7.1370001 -1.404
-31.15 7.02 -1.4
-31.075001 6.9520001 -1.395
-31.024 6.8390002 -1.392
-30.999001 6.7309999 -1.3890001
-30.951 6.619 -1.386
-31.027 6.533 -1.388
-31.091 6.3429999 -1.39
-30.999001 6.2740002 -1.3839999
-30.948 6.1620002 -1.381
-30.886999 6.0489998 -1.377
-30.806999 5.934 -1.372
-32.443001 9.2910004 -0.26699999
-30.659 5.7059999 -1.362
-30.594999 5.5939999 -1.358
-30.205999 5.4749999 -1.3380001
-30.131001 5.3629999 -1.3329999
-30.007999 5.244 -1.326
-29.926001 5.1329999 -1.321
-29.867001 5.027 -1.317
-29.792 4.9180002 -1.313
-29.742001 4.8140001 -1.309
-29.657 4.7519999 -1.3049999
-29.589001 4.6459999 -1.3
-29.518 4.54 -1.296
-29.448 4.4349999 -1.2920001
-29.375999 4.3299999 -1.2869999
-29.311001 4.2259998 -1.283
-29.233 4.1209998 -1.279
-29.132 4.0609999 -1.273
-29.07 3.9590001 -1.27
-29.017 3.674 -1.265
-28.992001 3.5780001 -1.263
-28.964001 3.4820001 -1.261
-28.782 3.369 -1.252
-29.441999 4.4250002 0.66100001
-29.111 4.0 -1.4579999
-34.380001 13.747 1.052
-34.346001 13.609 1.05
-34.318001 13.473 1.048
-34.137001 13.279 1.043
-34.186001 13.236 1.043
-34.143002 13.096 1.041
-34.094002 12.955 1.039
-34.049999 12.816 1.0369999
-33.994999 12.674 1.035
-33.945 12.534 1.0319999
-33.894001 12.394 1.03
-33.823002 12.308 1.028
-33.751999 12.162 1.025
-33.826 12.069 1.026
-34.145 12.062 1.033
-34.152 11.944 1.0319999
-34.352001 11.893 1.036
-33.532001 11.374 1.015
-33.722 11.379 1.0190001
-34.145 11.402 1.028
-33.229 10.866 1.005
-33.208 10.744 1.003
-33.147999 10.609 1.001
-33.09 10.476 0.99900001
-33.014999 10.396 0.99699998
-32.956001 10.263 0.99400002
-32.903999 10.134 0.99199998
-32.846001 10.003 0.99000001
-32.791 9.8739996 0.98799998
-32.726002 9.743 0.986
-32.674 9.6149998 0.98400003
-32.592999 9.5360003 0.98199999
-32.528 9.4069996 0.97899997
-32.59 9.3140001 0.98000002
-32.895 9.2889996 0.98699999
-32.858002 9.1669998 0.98500001
-33.111 9.125 0.991
-32.41 8.7690001 0.97299999
-32.404999 8.658 0.972
-31.886 8.1990004 0.958
-31.861 8.0860004 0.95700002
-31.790001 7.9619999 0.95499998
-31.715 7.8899999 0.95300001
-31.57 7.7490001 0.949
-31.525 7.5279999 0.94599998
-31.469 7.4099998 0.94499999
-31.395 7.289 0.94199997
-31.339001 7.1729999 0.94099998
-31.284 7.0570002 0.93900001
-31.202999 6.987 0.93699998
-31.152 6.8730001 0.935
-31.09 6.757 0.93300003
-31.018999 6.6399999 0.93099999
-31.087 6.552 0.93199998
-31.16 6.4650002 0.93300003
-31.01 6.3330002 0.92900002
-30.827999 6.2449999 0.92500001
-30.757 6.1300001 0.92299998
-30.627001 6.0050001 0.91900003
-30.539 5.888 0.917
-30.466999 5.7750001 0.91500002
-30.407 5.665 0.91299999
-30.326 5.5510001 0.91000003
-30.256001 5.4889998 0.90899998
-30.186001 5.3790002 0.90700001
-30.132 5.2719998 0.90499997
-30.056 5.1609998 0.903
-29.978001 5.0510001 0.90100002
-29.899 4.941 0.898
-29.754 4.8210001 0.89499998
-29.457001 4.3470001 0.88599998
-29.378 4.2410002 0.884
-29.302 4.1360002 0.88200003
-29.212999 4.0770001 0.88
-29.181999 3.9790001 0.87900001
-29.254 3.8959999 0.88
-29.502001 3.8340001 0.88599998
-29.424999 3.73 0.884
-29.645 3.6630001 0.889
-31.733999 8.0089998 -1.058
-34.112999 13.818 -1.433
-34.007999 13.651 -1.426
-34.007 13.526 -1.424
-34.198002 13.478 -1.431
-33.719002 13.228 -1.4069999
-34.050999 13.112 -1.419
-34.001999 12.971 -1.415
-33.951 12.829 -1.411
-33.904999 12.69 -1.4069999
-33.862999 12.553 -1.403
-33.790001 12.466 -1.398
-33.750999 12.331 -1.395
-33.702999 12.193 -1.39
-33.578999 11.91 -1.381
-33.442001 11.331 -1.367
-33.210999 11.021 -1.353
-33.158001 10.888 -1.349
-33.104 10.755 -1.345
-33.021999 10.671 -1.34
-32.978001 10.542 -1.336
-32.936001 10.415 -1.3329999
-32.834999 10.156 -1.325
-32.676998 9.8830004 -1.3150001
-32.595001 9.7460003 -1.3099999
-32.541 9.6739998 -1.306
-32.493 9.5489998 -1.303
-32.449001 9.4250002 -1.299
-29.150999 3.914 0.65499997
-28.822001 3.546 -1.439
-32.196999 8.7510004 -1.28
-32.162998 8.6339998 -1.278
-31.811001 8.2180004 -1.258
-31.747999 8.0959997 -1.2539999
-31.704 8.0310001 -1.251
-31.627001 7.9060001 -1.2460001
-31.556 7.783 -1.242
-31.299 7.303 -1.226
-31.231001 7.2360001 -1.222
-31.438999 7.4959998 0.699
-31.114 7.0029998 -1.215
-31.048 6.8860002 -1.211
-31.031 6.7789998 -1.209
-30.966 6.6630001 -1.205
-31.028 6.5749998 -1.207
-31.368999 7.375 0.69800001
-31.042999 6.3239999 -1.205
-31.0 6.2129998 -1.2029999
-30.929001 6.098 -1.199
-30.870001 5.9860001 -1.1950001
-30.812 5.8740001 -1.192
-30.736 5.7589998 -1.187
-30.639 5.691 -1.182
-30.271999 5.5240002 -1.165
-30.167 5.4070001 -1.16
-30.077999 5.2940001 -1.155
-31.253 7.1409998 0.69499999
-29.921 5.072 -1.146
-29.836 4.9619999 -1.142
-29.763 4.901 -1.138
-29.702 4.7950001 -1.135
-29.624001 4.6869998 -1.13
-31.188999 7.0229998 0.69400001
-29.500999 4.4780002 -1.124
-29.41 4.369 -1.119
-29.348 4.2659998 -1.115
-29.252001 4.2049999 -1.1109999
-29.176001 4.1009998 -1.107
-31.125 6.9060001 0.69300002
-29.077 3.9000001 -1.101
-28.941999 3.697 -1.094
-28.889999 3.598 -1.091
-28.804001 3.5420001 -1.087
-31.058001 6.8400002 0.69099998
-34.306999 13.661 1.223
-34.272999 13.523 1.221
-34.182999 13.425 1.2180001
-34.125999 13.279 1.215
-34.104 13.147 1.2130001
-34.049999 13.004 1.21
-34.009998 12.866 1.2079999
-33.963001 12.726 1.205
-33.907001 12.584 1.202
-33.831001 12.495 1.2
-33.789001 12.359 1.197
-33.709999 12.21 1.194
-33.714001 12.092 1.193
-33.870998 12.028 1.196
-33.740002 11.862 1.191
-34.268002 11.928 1.206
-33.639999 11.531 1.186
-33.833 11.479 1.1900001
-34.060001 11.437 1.196
-33.168999 10.905 1.168
-33.148998 10.783 1.166
-33.066002 10.699 1.164
-33.021 10.57 1.161
-32.970001 10.439 1.159
-32.907001 10.306 1.156
-32.848 10.174 1.154
-32.790001 10.043 1.151
-32.730999 9.9130001 1.148
-32.671001 9.7819996 1.146
-32.612999 9.7089996 1.1440001
-32.556999 9.5810003 1.141
-32.458 9.441 1.137
-32.484001 9.3380003 1.137
-32.606998 9.2629995 1.14
-32.444 9.1059999 1.135
-32.992001 9.1490002 1.149
-32.368 8.8109999 1.13
-32.519001 8.743 1.1339999
-32.84 8.7189999 1.142
-31.836 8.2370005 1.112
-31.806999 8.1239996 1.1109999
-31.738001 8.0530005 1.108
-31.674 7.9310002 1.1059999
-31.620001 7.8109999 1.104
-31.487 7.5689998 1.098
-31.434999 7.4520001 1.096
-31.368999 7.3319998 1.094
-31.297001 7.263 1.091
-31.228001 7.1440001 1.089
-31.166 7.027 1.086
-31.106001 6.9109998 1.084
-31.040001 6.7940001 1.082
-30.971001 6.677 1.079
-30.992001 6.579 1.079
-30.979 6.526 1.079
-31.243999 6.4790001 1.085
-31.399 6.4089999 1.089
-31.513 6.329 1.092
-31.629 6.2490001 1.095
-31.725 6.165 1.097
-31.669001 6.0510001 1.095
-31.995001 6.0089998 1.103
-32.102001 5.9770002 1.1059999
-32.198002 5.8899999 1.108
-30.374001 5.645 0.67799997
-30.079 5.3060002 1.048
-30.030001 5.1999998 1.046
-29.954 5.0900002 1.043
-29.871 4.9790001 1.041
-29.799999 4.9190001 1.039
-30.291 5.5310001 0.676
-29.632999 4.6999998 1.033
-29.57 4.5949998 1.031
-29.434 4.3839998 1.026
-29.361 4.2789998 1.024
-30.183001 5.414 0.67400002
-29.195 4.1139998 1.0190001
-29.118 4.0100002 1.016
-29.167 3.924 1.017
-29.746 4.8140001 1.0369999
-29.278 3.7520001 1.02
-30.106001 5.3509998 0.67299998
-30.048 5.243 0.67199999
-29.368 4.3189998 0.65899998
-29.976 5.1339998 0.67000002
-29.177999 4.441 -1.623
-29.587999 3.5480001 0.66100001
-29.875 5.02 0.66900003
-31.395 7.401 -1.039
-34.132999 13.659 -1.2130001
-34.261002 13.585 -1.217
-33.988998 13.416 -1.205
-33.824001 13.228 -1.196
-34.366001 13.66 1.46
-34.301998 13.572 1.457
-34.268002 13.434 1.454
-33.997002 12.806 -1.196
-33.943001 12.664 -1.193
-34.102001 13.0 1.443
-33.830002 12.441 -1.186
-33.798 12.308 -1.183
-33.939999 12.634 1.434
-33.722 12.041 -1.176
-33.619999 11.886 -1.171
-33.766998 12.209 1.423
-33.526001 11.676 -1.165
-33.499001 11.548 -1.1619999
-33.785999 11.857 1.42
-33.41 11.283 -1.155
-33.321999 11.137 -1.15
-33.243 10.995 -1.146
-34.130001 11.438 1.426
-33.129002 10.784 -1.1390001
-33.167999 10.828 1.3890001
-33.122002 10.698 1.386
-33.087002 10.572 1.3839999
-33.016998 10.435 1.38
-32.882 10.32 -0.89899999
-32.897999 10.171 1.374
-32.844002 10.041 1.37
-32.778 9.9650002 1.368
-32.707001 9.8310003 1.364
-32.653999 9.7040005 1.3609999
-32.601002 9.5769997 1.358
-32.528 9.4440002 1.354
-32.514999 9.3299999 1.353
-32.632999 9.2530003 1.3559999
-32.550999 9.1739998 1.353
-33.023998 9.1960001 1.368
-33.071999 9.0970001 1.369
-32.441002 8.8140001 1.346
-32.584 8.743 1.35
-32.800999 8.691 1.357
-31.882999 8.2349997 1.323
-31.84 8.1700001 1.321
-31.796 8.0530005 1.318
-31.728001 7.9289999 1.3150001
-31.688999 7.8140001 1.313
-31.639 7.6960001 1.3099999
-31.513 7.5609999 1.3049999
-31.483999 7.4499998 1.303
-31.414 7.381 1.3
-31.354 7.263 1.2970001
-31.296 7.1459999 1.295
-31.223 7.027 1.291
-31.188 6.428 -1.024
-31.118 6.3119998 -1.02
-31.044001 6.1950002 -1.016
-30.961 6.0780001 -1.012
-31.030001 6.5240002 1.281
-31.198999 6.4569998 1.286
-31.395 6.395 1.293
-31.533001 6.3200002 1.2970001
-32.523998 9.5930004 -0.88099998
-31.681999 6.1430001 1.3
-30.989 5.9580002 1.276
-30.829 5.8270001 1.27
-30.721001 5.7069998 1.266
-30.207001 5.4159999 1.247
-30.141001 5.3070002 1.244
-30.083 5.1989999 1.2410001
-30.007999 5.138 1.239
-29.597 4.5650001 -0.94999999
-29.535 4.461 -0.94700003
-29.783001 4.8109999 1.229
-29.711 4.704 1.226
-29.627001 4.5949998 1.223
-29.558001 4.4889998 1.22
-29.485001 4.3839998 1.217
-29.399 4.3239999 1.214
-29.327 4.2189999 1.211
-29.263 4.1160002 1.2079999
-29.173 4.0100002 1.205
-29.195999 3.9200001 1.205
-29.268999 3.836 1.207
-32.817001 10.004 -1.119
-32.160999 8.8850002 -0.86400002
-34.144001 13.262 1.448
-29.242001 3.8399999 1.0190001
-31.778999 8.191 -0.84600002
-30.382999 5.52 -0.986
-30.732 5.8189998 -1.367
-29.75 4.7800002 -0.958
-31.056999 6.8169999 -0.81300002
-31.021 6.25 -0.80800003
-29.9 5.119 -1.512
-29.797001 4.9369998 -0.76200002
-29.368 4.3460002 -0.74599999
-34.091 13.086 -1.204
-34.041 12.944 -1.2
-30.577999 5.612 -0.79100001
-34.210999 13.585 -0.97399998
-33.901001 13.215 -0.95999998
-34.060001 13.154 -0.96399999
-34.014999 13.014 -0.96100003
-33.964001 12.873 -0.958
-33.903999 12.789 -0.95499998
-33.847 12.646 -0.95200002
-33.807999 12.51 -0.949
-33.771999 12.376 -0.94700003
-33.705002 12.232 -0.94300002
-33.666 12.098 -0.94099998
-33.603001 11.956 -0.93699998
-33.542 11.875 -0.935
-33.478001 11.734 -0.93099999
-33.438999 11.603 -0.92799997
-33.381001 11.465 -0.92500001
-33.328999 11.33 -0.92199999
-33.285 11.199 -0.92000002
-33.235001 11.066 -0.917
-33.171001 10.986 -0.91399997
-33.105999 10.85 -0.91100001
-33.060001 10.72 -0.90799999
-32.997002 10.584 -0.90499997
-32.945999 10.454 -0.90200001
-34.002998 12.718 1.437
-32.694 10.148 -0.89099997
-32.738998 10.106 -0.89200002
-32.587002 9.7229996 -0.884
-33.730999 12.164 -1.178
-32.469002 9.4659996 -0.87800002
-32.417999 9.3409996 -0.875
-32.334999 9.2620001 -0.87199998
-32.278999 9.1359997 -0.86900002
-32.214001 9.0080004 -0.866
-33.882 12.492 1.4299999
-32.108002 8.7609997 -0.861
-32.040001 8.6350002 -0.85799998
-31.973 8.5089998 -0.85500002
-31.888 8.4329996 -0.85100001
-31.833 8.3109999 -0.84899998
-33.846001 12.358 1.428
-31.719999 8.0690002 -0.84299999
-31.65 7.9450002 -0.83999997
-31.507999 7.8039999 -0.83499998
-31.538 7.7069998 -0.83499998
-31.379999 7.5110002 -0.82800001
-31.319 7.3930001 -0.82599998
-31.292 7.283 -0.824
-31.188 7.1550002 -0.81999999
-31.146 7.0430002 -0.81800002
-31.055 6.9190001 -0.81400001
-33.748001 12.082 1.421
-30.990999 6.7519999 -0.81099999
-30.966999 6.645 -0.80900002
-31.062 6.5630002 -0.81199998
-31.136 6.4770002 -0.81400001
-31.089001 6.3649998 -0.81099999
-33.882 12.01 1.425
-30.941 6.132 -0.80500001
-30.878 6.0689998 -0.80299997
-30.802 5.954 -0.80000001
-30.729 5.8400002 -0.79699999
-30.667999 5.7280002 -0.79400003
-33.438 11.41 -1.158
-30.190001 5.4429998 -0.778
-30.132 5.3340001 -0.77499998
-29.995001 5.2610002 -0.76999998
-29.937 5.1539998 -0.76800001
-29.870001 5.046 -0.76499999
-34.285999 11.971 1.437
-29.726999 4.8299999 -0.75999999
-29.658001 4.723 -0.75700003
-29.584999 4.6160002 -0.75400001
-29.5 4.5549998 -0.75099999
-29.437 4.4510002 -0.74900001
-33.700001 11.53 1.414
-29.285999 4.2399998 -0.74299997
-29.219999 4.1360002 -0.74000001
-29.153999 4.0339999 -0.73799998
-29.070999 3.9289999 -0.73500001
-28.978001 3.8699999 -0.73100001
-33.898998 11.479 1.419
-28.857 3.6689999 -0.727
-28.77 3.566 -0.72399998
-28.709 3.467 -0.72100002
-33.193001 10.863 -1.142
-33.216999 10.901 1.391
-33.085999 10.656 -1.136
-28.929001 3.7709999 -0.72899997
-33.016998 10.519 -1.132
-32.979 10.393 -1.1289999
-31.93 8.3249998 -1.068
-32.851002 10.127 -1.1210001
-32.964001 10.305 1.377
-32.644001 9.783 -1.11
-29.097 3.987 0.161
-32.609001 9.6610003 -1.107
-32.555 9.5340004 -1.104
-31.882 8.2060003 -1.0650001
-29.073 3.885 -0.41
-32.467999 9.3979998 -1.099
-29.048 3.8989999 -1.454
-32.258999 8.9540005 -1.087
-32.166 8.8199997 -1.082
-31.792 8.1300001 -1.061
-32.001999 8.4519997 -1.072
-34.384998 13.775 -0.76099998
-34.320999 13.624 -0.75800002
-34.255001 13.474 -0.755
-34.139 13.304 -0.75099999
-34.182999 13.198 -0.75099999
-34.113998 13.11 -0.74800003
-34.057999 12.966 -0.74599999
-34.033001 12.834 -0.74400002
-33.970001 12.688 -0.741
-33.931 12.553 -0.73900002
-33.880001 12.413 -0.736
-33.838001 12.277 -0.73400003
-33.763 12.19 -0.73100001
-33.723999 12.056 -0.72899997
-33.653999 11.913 -0.72600001
-33.619999 11.782 -0.72399998
-33.568001 11.645 -0.722
-33.509998 11.507 -0.71899998
-33.451 11.37 -0.71700001
-33.403 11.237 -0.71399999
-33.334999 11.156 -0.71200001
-33.292 11.025 -0.70999998
-33.23 10.889 -0.70700002
-33.173 10.755 -0.70499998
-33.118999 10.623 -0.70200002
-33.063999 10.491 -0.69999999
-33.014999 10.361 -0.69800001
-32.931999 10.279 -0.69499999
-32.886002 10.151 -0.69300002
-32.821999 10.018 -0.69
-32.771 9.8900003 -0.68800002
-32.719002 9.7629995 -0.68599999
-32.664001 9.6350002 -0.68300003
-32.606998 9.507 -0.68099999
-32.529999 9.4289999 -0.67900002
-32.456001 9.2969999 -0.676
-32.403999 9.1719999 -0.67299998
-32.34 9.0450001 -0.671
-32.285 8.9200001 -0.66900003
-32.23 8.7959995 -0.667
-32.167 8.6709995 -0.66399997
-32.091999 8.5959997 -0.662
-32.041 8.4750004 -0.66000003
-31.975 8.3500004 -0.65700001
-31.922001 8.2290001 -0.65499997
-31.864 8.1079998 -0.653
-31.796 7.9840002 -0.64999998
-31.728001 7.8610001 -0.648
-31.653 7.79 -0.64499998
-31.521999 7.5479999 -0.64099997
-31.452 7.427 -0.63800001
-31.392 7.309 -0.63599998
-31.337 7.1929998 -0.634
-31.677999 7.8889999 -1.054
-31.193001 7.0050001 -0.62900001
-31.146 6.8920002 -0.62699997
-31.174999 7.1220002 -1.605
-31.011 6.658 -0.62199998
-31.094 6.5739999 -0.62400001
-31.188999 6.4920001 -0.62599999
-31.174 6.3860002 -0.625
-31.08 6.316 -0.62199998
-31.106001 7.0029998 -1.6
-30.943001 6.086 -0.61799997
-31.287001 7.2210002 -1.034
-30.819 5.8610001 -0.61299998
-30.732 5.7449999 -0.611
-30.691999 5.638 -0.60900003
-30.278999 5.4640002 -0.59799999
-30.188999 5.3990002 -0.59500003
-31.219999 7.1020002 -1.03
-30.061001 5.1810002 -0.59100002
-29.966999 5.0679998 -0.588
-29.902 4.961 -0.58600003
-31.025999 6.8319998 -1.5930001
-29.752001 4.744 -0.58099997
-31.157 6.9850001 -1.027
-29.624001 4.5809999 -0.57700002
-29.535999 4.4720001 -0.574
-29.461 4.3660002 -0.57200003
-30.936001 6.71 -1.587
-29.325001 4.158 -0.56800002
-31.098 6.869 -1.024
-31.605 7.7659998 -1.051
-29.099001 3.8940001 -0.56099999
-29.028 3.7909999 -0.55900002
-30.882 6.5970001 -1.5829999
-28.886999 3.589 -0.55400002
-31.083 6.763 -1.022
-28.752001 3.3889999 -0.55000001
-30.827 6.4840002 -1.5779999
-31.02 6.6479998 -1.0190001
-31.048 6.6030002 -1.02
-30.677 6.2509999 -1.567
-31.409 6.5760002 -1.033
-30.614 6.138 -1.562
-31.155001 6.9089999 1.288
-30.552 6.0749998 -1.558
-31.093 6.7930002 1.285
-30.469 5.9590001 -1.552
-31.025999 6.6760001 1.2819999
-30.410999 5.849 -1.548
-30.999001 6.619 1.281
-30.349001 5.7379999 -1.543
-30.933001 5.9720001 -1.01
-30.298 5.6300001 -1.539
-30.856001 5.9060001 -1.007
-30.243 5.5209999 -1.535
-30.771999 5.79 -1.003
-30.042 5.3870001 -1.523
-30.983 6.7210002 0.69
-30.034 5.3369999 -1.522
-31.622999 6.2340002 1.299
-29.681999 4.6739998 -0.954
-29.952999 5.2249999 -1.516
-34.334999 13.637 -0.56999999
-34.284 13.554 -0.56800002
-34.258999 13.42 -0.56599998
-34.155998 13.256 -0.56300002
-34.143002 13.128 -0.56199998
-34.091 12.985 -0.56
-34.042999 12.845 -0.55800003
-33.980999 12.699 -0.55599999
-33.901001 12.609 -0.55299997
-33.863998 12.474 -0.55199999
-33.799 12.329 -0.54900002
-33.763 12.196 -0.54799998
-33.717999 12.06 -0.546
-33.658001 11.919 -0.54400003
-33.608002 11.783 -0.542
-33.535999 11.699 -0.54000002
-33.481998 11.562 -0.53799999
-33.437 11.429 -0.53600001
-33.398998 11.298 -0.53399998
-33.327999 11.158 -0.53200001
-33.280998 11.026 -0.52999997
-33.223 10.891 -0.528
-33.148998 10.809 -0.52600002
-33.104 10.679 -0.52399999
-33.048 10.547 -0.52200001
-32.984001 10.412 -0.51999998
-32.908001 10.274 -0.51800001
-32.875 10.151 -0.51599997
-32.808998 10.018 -0.514
-32.741001 9.9399996 -0.51200002
-32.693001 9.8140001 -0.51099998
-32.632 9.684 -0.509
-32.571999 9.5550003 -0.50700003
-32.519001 9.4280005 -0.505
-32.445 9.2959995 -0.50300002
-32.395 9.1719999 -0.50099999
-32.354 9.0509996 -0.49900001
-32.250999 8.967 -0.49700001
-32.206001 8.8450003 -0.495
-32.145 8.7200003 -0.493
-32.087002 8.5959997 -0.491
-32.028999 8.4729996 -0.49000001
-31.972 8.3500004 -0.48800001
-31.909 8.2270002 -0.486
-31.837 8.1549997 -0.484
-31.768999 8.0310001 -0.48199999
-31.693001 7.9060001 -0.47999999
-31.573 7.7709999 -0.477
-29.934 5.0279999 1.2359999
-31.492001 7.5409999 -0.47400001
-31.445999 7.4260001 -0.472
-31.365999 7.355 -0.47
-31.302999 7.2360001 -0.46900001
-31.24 7.118 -0.46700001
-31.181999 7.0019999 -0.465
-31.134001 6.888 -0.46399999
-31.075001 6.7729998 -0.46200001
-30.990999 6.6529999 -0.46000001
-30.99 6.6009998 -0.45899999
-31.055 6.513 -0.46000001
-31.167999 6.4349999 -0.46200001
-31.094 6.3179998 -0.46000001
-31.023001 6.2020001 -0.458
-30.959999 6.0879998 -0.45699999
-30.917999 5.9790001 -0.45500001
-30.830999 5.9120002 -0.45300001
-30.763 5.7989998 -0.45100001
-30.656 5.6789999 -0.449
-30.482 5.5469999 -0.44499999
-30.171 5.3930001 -0.43799999
-30.108999 5.2839999 -0.43599999
-30.041 5.1750002 -0.43399999
-29.954 5.0630002 -0.43200001
-29.870001 5.0 -0.43000001
-29.802 4.8930001 -0.428
-29.731001 4.7849998 -0.426
-29.649 4.6760001 -0.42399999
-29.586 4.5710001 -0.42300001
-29.525 4.467 -0.421
-29.445999 4.3600001 -0.419
-29.362 4.3000002 -0.417
-29.282 4.1950002 -0.41499999
-29.218 4.092 -0.414
-29.152 3.9890001 -0.412
-29.153 3.983 -0.93000001
-29.007999 3.7839999 -0.40799999
-28.926001 3.727 -0.40599999
-28.855 3.625 -0.405
-28.785 3.5250001 -0.403
-28.719999 3.425 -0.40099999
-29.098 3.882 -0.92799997
-28.898001 3.6470001 -1.444
-29.018999 3.779 -0.92400002
-29.277 4.1869998 0.50599998
-28.943001 3.677 -0.921
-31.351999 7.3390002 -1.0369999
-28.775 3.448 -1.436
-28.864 3.6210001 -0.917
-28.798 3.5209999 -0.91399997
-28.723 3.4200001 -0.91100001
-29.857 4.9190001 1.232
-29.459 4.355 -0.94400001
-34.290001 13.671 -0.31200001
-34.262001 13.536 -0.31099999
-34.215 13.393 -0.30899999
-34.091 13.221 -0.30700001
-34.125999 13.112 -0.30700001
-34.068001 12.967 -0.30500001
-34.006001 12.882 -0.30399999
-33.946999 12.738 -0.303
-33.895 12.598 -0.301
-33.849998 12.46 -0.30000001
-33.792999 12.319 -0.29899999
-33.737999 12.179 -0.29699999
-33.699001 12.045 -0.296
-33.647999 11.908 -0.29499999
-33.574001 11.823 -0.29300001
-33.523998 11.687 -0.292
-33.472 11.551 -0.29100001
-33.424999 11.417 -0.28999999
-33.375 11.283 -0.28799999
-33.323002 11.149 -0.287
-33.261002 11.013 -0.28600001
-33.199001 10.934 -0.28400001
-33.133999 10.798 -0.28299999
-33.084 10.667 -0.28200001
-33.023998 10.533 -0.28
-32.98 10.405 -0.27900001
-32.914001 10.271 -0.278
-32.863998 10.142 -0.27700001
-32.792999 10.064 -0.27500001
-32.738998 9.9350004 -0.27399999
-32.669998 9.802 -0.273
-32.624001 9.677 -0.271
-32.557999 9.5459995 -0.27000001
-32.495998 9.4169998 -0.26899999
-34.160999 13.146 1.447
-32.367001 9.2150002 -0.266
-32.305 9.0880003 -0.26499999
-32.257999 8.9650002 -0.264
-32.195999 8.8389997 -0.26199999
-32.139999 8.7150002 -0.26100001
-32.081001 8.5909996 -0.25999999
-32.008999 8.4639997 -0.259
-31.943001 8.3929996 -0.257
-31.889999 8.2720003 -0.25600001
-31.815001 8.1459999 -0.255
-31.754999 8.0249996 -0.25400001
-31.704 7.9060001 -0.252
-31.628 7.7820001 -0.25099999
-31.584 7.6659999 -0.25
-31.493 7.539 -0.248
-31.419001 7.4699998 -0.24699999
-31.367001 7.3530002 -0.24600001
-31.308001 7.2360001 -0.245
-31.237 7.1160002 -0.244
-31.174999 6.9990001 -0.242
-31.108999 6.882 -0.241
-31.058001 6.7680001 -0.23999999
-30.975 6.6989999 -0.23899999
-30.952999 6.5929999 -0.23800001
-31.049999 6.5110002 -0.23899999
-31.132999 6.427 -0.23999999
-31.077999 6.3140001 -0.23899999
-30.997999 6.1960001 -0.23800001
-30.933001 6.0819998 -0.236
-30.882 6.0219998 -0.235
-30.818001 5.9089999 -0.234
-30.756001 5.7969999 -0.233
-30.656 5.6789999 -0.23100001
-30.565001 5.5630002 -0.23
-30.173 5.3940001 -0.22400001
-30.101 5.2839999 -0.223
-30.028999 5.2220001 -0.222
-29.938 5.1100001 -0.22
-29.872999 5.0019999 -0.219
-29.796 4.8930001 -0.21799999
-29.726999 4.7859998 -0.21699999
-29.653 4.6789999 -0.215
-29.57 4.5710001 -0.214
-29.51 4.5139999 -0.213
-29.433001 4.408 -0.212
-29.346001 4.3010001 -0.20999999
-29.285999 4.198 -0.20900001
-29.214001 4.0939999 -0.208
-29.136 3.99 -0.207
-29.069 3.888 -0.206
-28.993 3.7850001 -0.204
-28.917999 3.7290001 -0.20299999
-28.841999 3.6270001 -0.20200001
-28.768 3.526 -0.20100001
-28.688 3.425 -0.199
-28.645 3.329 -0.199
-34.060001 12.862 1.4400001
-34.297001 13.747 -0.085000001
-34.278 13.614 -0.085000001
-34.237 13.474 -0.083999999
-34.104 13.298 -0.082999997
-34.146 13.19 -0.082999997
-34.081001 13.104 -0.082000002
-34.032001 12.962 -0.081
-33.977001 12.819 -0.079999998
-33.926998 12.679 -0.079999998
-33.881001 12.54 -0.079000004
-33.834 12.402 -0.078000002
-33.778999 12.261 -0.077
-33.710999 12.177 -0.077
-33.660999 12.039 -0.075999998
-33.608002 11.901 -0.075000003
-33.563999 11.767 -0.074000001
-33.514 11.631 -0.074000001
-33.466999 11.497 -0.072999999
-33.407001 11.359 -0.071999997
-33.334 11.276 -0.071000002
-33.282001 11.142 -0.071000002
-33.220001 11.005 -0.07
-33.18 10.876 -0.068999998
-33.120998 10.742 -0.068999998
-33.064999 10.609 -0.068000004
-33.005001 10.475 -0.067000002
-32.945999 10.343 -0.066
-32.869999 10.262 -0.066
-32.82 10.134 -0.064999998
-32.771999 10.006 -0.064000003
-32.723 9.8789997 -0.064000003
-32.650002 9.7449999 -0.063000001
-32.59 9.6149998 -0.061999999
-32.542 9.4899998 -0.061000001
-32.470001 9.4139996 -0.061000001
-32.409 9.2860003 -0.059999999
-32.354 9.1599998 -0.059
-32.299 9.0349998 -0.057999998
-32.233002 8.9069996 -0.057999998
-32.169998 8.7810001 -0.057
-32.109001 8.6560001 -0.056000002
-32.034 8.5819998 -0.056000002
-31.985001 8.4610004 -0.055
-31.910999 8.3339996 -0.054000001
-31.858999 8.2139997 -0.052999999
-31.798 8.0909996 -0.052999999
-31.736 7.9689999 -0.052000001
-31.666 7.8460002 -0.050999999
-31.610001 7.7789998 -0.050999999
-31.459999 7.533 -0.048999999
-31.398001 7.414 -0.048
-31.343 7.2969999 -0.048
-31.282 7.1789999 -0.046999998
-31.212999 7.0599999 -0.046
-31.152 6.9949999 -0.046
-31.097 6.8800001 -0.045000002
-31.013 6.7589998 -0.044
-30.944 6.6420002 -0.044
-31.02 6.5570002 -0.044
-31.125999 6.4770002 -0.045000002
-31.125 6.375 -0.045000002
-31.045 6.257 -0.044
-30.969 6.191 -0.043000001
-30.910999 6.0780001 -0.041999999
-30.844 5.9640002 -0.041999999
-30.768 5.8499999 -0.041000001
-30.709999 5.7379999 -0.039999999
-30.627001 5.6230001 -0.039999999
-30.233999 5.4530001 -0.035999998
-30.139999 5.3870001 -0.035
-30.063999 5.276 -0.035
-29.99 5.1659999 -0.034000002
-29.903 5.0539999 -0.033
-29.841999 4.947 -0.033
-29.764999 4.8379998 -0.032000002
-29.683001 4.7290001 -0.030999999
-29.611 4.6700001 -0.029999999
-29.547001 4.5650001 -0.029999999
-29.476 4.4590001 -0.028999999
-29.399 4.3530002 -0.028000001
-29.320999 4.2470002 -0.028000001
-29.247 4.1420002 -0.027000001
-29.184999 4.04 -0.026000001
-29.108 3.983 -0.026000001
-29.035 3.8800001 -0.025
-28.958 3.777 -0.024
-28.889999 3.6760001 -0.024
-28.815001 3.5739999 -0.023
-28.752001 3.4749999 -0.022
-28.688999 3.375 -0.022
-29.673 4.684 -0.579
-34.382999 13.649 0.149
-34.335999 13.505 0.149
-34.230999 13.34 0.15000001
-34.189999 13.263 0.15000001
-34.175999 13.134 0.15000001
-34.113998 12.987 0.15000001
-34.069 12.848 0.15000001
-34.022999 12.708 0.15000001
-33.972 12.568 0.15000001
-33.917999 12.427 0.15099999
-33.855999 12.344 0.15099999
-33.787998 12.199 0.15099999
-33.772999 12.074 0.15099999
-33.785999 11.959 0.15099999
-33.709 11.813 0.15099999
-33.667999 11.68 0.15099999
-33.616001 11.544 0.15099999
-33.521999 11.453 0.152
-33.465 11.316 0.152
-33.402 11.178 0.152
-33.34 11.041 0.152
-33.238998 10.892 0.152
-33.220001 10.771 0.152
-33.159 10.636 0.153
-33.088001 10.556 0.153
-33.030998 10.423 0.153
-32.973999 10.292 0.153
-32.908001 10.158 0.153
-32.860001 10.03 0.153
-32.792999 9.8970003 0.153
-32.75 9.7720003 0.154
-32.681999 9.6960001 0.154
-32.627998 9.5690002 0.154
-32.48 9.415 0.154
-32.43 9.29 0.154
-32.346001 9.1560001 0.154
-32.299 9.033 0.155
-32.237 8.9069996 0.155
-32.169998 8.7799997 0.155
-32.097 8.7060003 0.155
-32.014 8.5760002 0.155
-31.957001 8.4530001 0.155
-31.903999 8.3319998 0.155
-31.884001 8.2200003 0.155
-31.867001 8.1090002 0.156
-31.819 7.9899998 0.156
-31.75 7.9200001 0.156
-31.622999 7.783 0.156
-31.660999 7.6869998 0.156
-31.549 7.5549998 0.156
-31.485001 7.4349999 0.156
-31.426001 7.3169999 0.156
-31.355 7.197 0.15700001
-31.284 7.1290002 0.15700001
-31.225 7.0120001 0.15700001
-31.174 6.8979998 0.15700001
-31.115999 6.783 0.15700001
-31.037001 6.664 0.15700001
-31.049999 6.5650001 0.15700001
-31.073 6.4679999 0.15700001
-31.198 6.4429998 0.15700001
-31.125999 6.3260002 0.15700001
-31.063999 6.2119999 0.15700001
-30.993 6.0960002 0.15800001
-30.945 5.9860001 0.15800001
-30.881001 5.8730001 0.15800001
-30.809 5.7589998 0.15800001
-30.740999 5.697 0.15800001
-30.474001 5.5479999 0.15800001
-30.233 5.4070001 0.15899999
-30.157 5.296 0.15899999
-30.101 5.1880002 0.15899999
-30.014 5.0760002 0.15899999
-29.947001 4.9679999 0.15899999
-29.864 4.8579998 0.16
-29.767 4.7950001 0.16
-29.709 4.6900001 0.16
-29.638 4.5830002 0.16
-29.566999 4.4770002 0.16
-29.497999 4.3720002 0.16
-29.423 4.2670002 0.16
-29.343 4.1609998 0.161
-29.235001 4.099 0.161
-29.016001 3.8829999 0.161
-30.917999 6.6059999 0.68900001
-28.941 3.78 0.161
-28.881001 3.6800001 0.161
-28.797001 3.5780001 0.162
-28.726999 3.4779999 0.162
-28.663 3.424 0.162
-29.179001 4.1030002 -1.4630001
-30.855 6.4910002 0.68699998
-29.197001 4.3969998 -1.624
-29.075001 4.099 -1.614
-29.016001 3.9979999 -1.609
-28.924 3.8929999 -1.603
-28.898001 3.6589999 -1.599
-28.808001 3.5550001 -1.5930001
-28.733999 3.4549999 -1.5880001
-28.664 3.355 -1.582
-29.657 4.6960001 0.66399997
-30.714001 5.6799998 -1.0
-30.156 5.4169998 1.051
-34.254002 13.714 0.32300001
-34.215 13.574 0.32300001
-34.179001 13.436 0.32300001
-34.219002 13.389 0.32300001
-34.049999 13.2 0.322
-34.004002 13.059 0.322
-33.946999 12.915 0.32100001
-33.907001 12.778 0.32100001
-33.868999 12.642 0.32100001
-33.805 12.498 0.31999999
-33.733002 12.41 0.31999999
-33.675999 12.269 0.31999999
-33.631001 12.134 0.31999999
-33.754002 12.058 0.31999999
-33.821999 11.963 0.31999999
-33.742001 11.816 0.31999999
-33.682999 11.676 0.31900001
-33.592999 11.586 0.31900001
