# .PCD v0.7 - Point Cloud Data file format
VERSION 0.7
FIELDS x y z
SIZE 4 4 4
TYPE F F F
COUNT 1 1 1
WIDTH 137
HEIGHT 1
VIEWPOINT 0 0 0 1 0 0 0
POINTS 137
DATA ascii
-23.537001 2.313 -1.541
-23.475 2.7149999 -0.98299998
-23.408001 2.6329999 -0.97899997
-23.379999 2.5550001 -0.977
-23.378 2.4809999 -0.977
-23.388 2.408 -0.977
-23.423 2.3369999 -0.97799999
-23.534 2.273 -0.98400003
-23.535 2.727 -0.292
-23.469999 2.645 -0.28999999
-23.417 2.5639999 -0.289
-23.410999 2.4890001 -0.289
-23.405001 2.451 -0.28799999
-23.447001 2.7820001 0.28099999
-23.341999 2.6949999 0.28099999
-23.325001 2.619 0.28099999
-23.306999 2.543 0.28099999
-23.334999 2.4719999 0.28099999
-23.389999 2.404 0.28099999
-23.436001 2.3710001 0.28099999
-23.540001 2.733 -0.70999998
-23.452 2.967 1.008
-23.421 2.888 1.007
-23.434 2.8150001 1.007
-23.431 2.319 -1.128
-23.423 2.7390001 1.007
-23.552 2.323 -0.708
-23.538 2.2550001 -1.1339999
-23.4 2.6619999 1.005
-23.421 2.4879999 -1.534
-23.434999 2.415 -1.535
-23.454 2.3429999 -1.536
-23.559 2.842 0.74900001
-23.478001 2.757 0.74699998
-23.427 2.714 0.745
-23.427999 2.6389999 0.745
-23.396 2.5610001 0.74400002
-23.408001 2.4879999 0.74400002
-23.455 2.4189999 0.745
-23.471001 2.346 0.74599999
-23.629 2.2869999 0.74900001
-23.646 2.2490001 -1.549
-23.384001 2.648 -1.4170001
-23.389999 2.5739999 -1.4170001
-23.382 2.4990001 -1.416
-23.362 2.4230001 -1.414
-23.384001 2.388 -1.415
-23.503 2.7590001 -0.55299997
-23.445999 2.677 -0.551
-23.419001 2.5999999 -0.55000001
-23.385 2.559 -0.54900002
-23.393 2.4849999 -0.54900002
-23.424 2.414 -0.54900002
-23.474001 2.345 -0.551
-23.58 2.2809999 -0.55400002
-23.434 2.6530001 -0.125
-23.389 2.5739999 -0.124
-23.363001 2.5339999 -0.124
-23.361 2.46 -0.124
-23.389999 2.388 -0.124
-23.457001 2.3210001 -0.125
-23.497999 2.7349999 -0.84899998
-23.437 2.6530001 -0.84500003
-23.412001 2.575 -0.84399998
-23.392 2.4990001 -0.84299999
-23.405001 2.4260001 -0.84299999
-23.433001 2.392 -0.84399998
-23.535999 2.3280001 -0.84799999
-23.455999 2.3210001 -1.42
-23.458 2.247 -1.419
-23.485001 2.7349999 -1.1339999
-23.414 2.6889999 -1.13
-23.372999 2.6099999 -1.127
-23.337 2.5320001 -1.124
-23.349001 2.4590001 -1.125
-23.379999 2.388 -1.126
-23.466999 2.724 0.44600001
-23.388 2.641 0.44499999
-23.408001 2.5680001 0.44499999
-23.377001 2.5280001 0.44499999
-23.414 2.457 0.44499999
-23.481001 2.3900001 0.44600001
-23.483999 2.9289999 0.85900003
-23.407 2.882 0.85699999
-23.388 2.8050001 0.85600001
-23.377001 2.7290001 0.85500002
-23.365 2.6530001 0.85500002
-23.351999 2.5780001 0.85399997
-23.341999 2.5020001 0.85399997
-23.375 2.4319999 0.85399997
-23.400999 2.3970001 0.85500002
-23.436001 2.3269999 0.85600001
-23.455 2.717 0.02
-23.393999 2.6359999 0.02
-23.364 2.5580001 0.021
-23.372 2.4849999 0.021
-23.403 2.414 0.02
-23.457001 2.345 0.02
-23.523001 2.74 -0.41299999
-23.478001 2.6600001 -0.41100001
-23.459 2.5829999 -0.41100001
-23.455 2.5079999 -0.41
-23.465 2.4349999 -0.41
-23.52 2.3659999 -0.412
-23.583 2.2969999 -0.41299999
-23.527 2.74 0.17
-23.459999 2.658 0.17
-23.429001 2.5799999 0.17
-23.434999 2.506 0.17
-23.459 2.434 0.17
-23.518 2.3659999 0.17
-23.487 3.0079999 1.01
-23.481001 2.651 -0.70700002
-23.447001 2.573 -0.70499998
-23.437 2.497 -0.70499998
-23.434999 2.46 -0.704
-23.489 2.391 -0.70599997
-23.384001 2.586 1.005
-23.382 2.5109999 1.0039999
-23.41 2.477 1.005
-23.436001 2.405 1.006
-23.476999 2.335 1.007
-23.476999 2.678 -1.2589999
-23.464001 2.602 -1.258
-23.417999 2.5599999 -1.255
-23.392 2.4820001 -1.252
-23.398001 2.4089999 -1.252
-23.459 2.3410001 -1.256
-23.5 2.27 -1.258
-23.65 2.2090001 -1.267
-23.488001 2.7360001 0.56699997
-23.389 2.687 0.56599998
-23.365999 2.6099999 0.565
-23.365999 2.536 0.565
-23.389999 2.464 0.565
-23.431 2.3940001 0.56599998
-23.506001 2.3269999 0.56699997
