# .PCD v0.7 - Point Cloud Data file format
VERSION 0.7
FIELDS x y z
SIZE 4 4 4
TYPE F F F
COUNT 1 1 1
WIDTH 1706
HEIGHT 1
VIEWPOINT 0 0 0 1 0 0 0
POINTS 1706
DATA ascii
-28.141001 2.7739999 -0.38800001
-28.072001 2.678 -0.38600001
-28.000999 2.5829999 -0.38499999
-27.919001 2.4860001 -0.38299999
-27.857 2.3929999 -0.38100001
-27.778999 2.342 -0.37900001
-27.698999 2.247 -0.37799999
-27.625999 2.154 -0.37599999
-27.551001 2.0610001 -0.37400001
-27.473 1.969 -0.37200001
-27.403999 1.877 -0.37099999
-27.337999 1.786 -0.36899999
-27.254999 1.738 -0.368
-27.18 1.647 -0.366
-27.105 1.557 -0.36399999
-27.035999 1.4680001 -0.36300001
-26.973 1.3789999 -0.361
-26.893 1.29 -0.359
-26.816999 1.202 -0.35800001
-26.735001 1.156 -0.35600001
-26.665001 1.069 -0.354
-26.586 0.98199999 -0.35299999
-26.507 0.89600003 -0.35100001
-26.438 0.81099999 -0.34999999
-26.358 0.72500002 -0.34799999
-26.278 0.63999999 -0.34599999
-26.193001 0.597 -0.34400001
-26.122999 0.51300001 -0.34299999
-26.049 0.43000001 -0.34099999
-25.972 0.347 -0.34
-25.896999 0.264 -0.338
-25.806 0.182 -0.336
-25.719999 0.101 -0.33399999
-25.648001 0.059999999 -0.333
-25.559999 -0.02 -0.331
-25.502001 -0.101 -0.33000001
-25.422001 -0.18000001 -0.32800001
-25.341 -0.259 -0.32600001
-25.257999 -0.338 -0.32499999
-25.188999 -0.41600001 -0.32300001
-25.104 -0.454 -0.32100001
-25.025 -0.53200001 -0.31999999
-24.945 -0.60799998 -0.31799999
-24.863001 -0.685 -0.31600001
-24.785 -0.76099998 -0.315
-24.702 -0.83600003 -0.31299999
-24.628 -0.91100001 -0.31200001
-24.552999 -0.98500001 -0.31
-24.475 -1.021 -0.30899999
-24.403999 -1.095 -0.30700001
-24.309 -1.1670001 -0.30500001
-24.240999 -1.24 -0.30399999
-24.155001 -1.312 -0.30199999
-24.091 -1.385 -0.301
-24.009001 -1.456 -0.29899999
-23.938 -1.489 -0.29800001
-23.862 -1.5599999 -0.296
-23.781 -1.63 -0.29499999
-23.726 -1.701 -0.294
-23.551001 -1.837 -0.28999999
-23.464001 -1.905 -0.289
-23.382999 -1.9349999 -0.287
-23.315001 -2.003 -0.28600001
-23.247 -2.0710001 -0.28400001
-23.15 -2.1359999 -0.28200001
-23.084 -2.2030001 -0.28099999
-23.007 -2.2690001 -0.28
-22.917999 -2.3329999 -0.278
-22.849001 -2.362 -0.27700001
-22.774 -2.427 -0.27500001
-22.697001 -2.4909999 -0.27399999
-22.618999 -2.5539999 -0.27200001
-22.539 -2.6170001 -0.271
-22.459999 -2.6800001 -0.26899999
-22.379999 -2.7409999 -0.26800001
-22.306 -2.7679999 -0.266
-22.242001 -2.8310001 -0.26499999
-22.160999 -2.892 -0.264
-22.083 -2.9519999 -0.26199999
-22.006001 -3.0120001 -0.26100001
-21.929001 -3.072 -0.259
-21.858 -3.132 -0.25799999
-21.782 -3.1559999 -0.25600001
-21.708 -3.2149999 -0.255
-21.622999 -3.2720001 -0.25299999
-21.542999 -3.3299999 -0.252
-21.473 -3.388 -0.25099999
-21.398001 -3.4449999 -0.249
-21.322001 -3.5020001 -0.248
-21.257 -3.5250001 -0.24699999
-21.174999 -3.5799999 -0.245
-21.110001 -3.638 -0.244
-21.035 -3.6930001 -0.243
-20.965 -3.7490001 -0.241
-20.882 -3.802 -0.23999999
-20.795 -3.8529999 -0.23800001
-20.742001 -3.8770001 -0.237
-20.775 -3.951 -0.23800001
-20.819 -4.027 -0.23999999
-20.858 -4.1030002 -0.241
-20.837 -4.1669998 -0.23999999
-20.739 -4.2150002 -0.23899999
-20.642 -4.263 -0.237
-20.598 -4.2870002 -0.236
-20.507999 -4.336 -0.234
-20.41 -4.3829999 -0.233
-20.386 -4.4450002 -0.23199999
-20.299999 -4.493 -0.23100001
-20.247 -4.5479999 -0.23
-20.149 -4.592 -0.228
-20.076 -4.6420002 -0.227
-19.976999 -4.652 -0.22499999
-19.551001 -4.619 -0.21600001
-19.486 -4.6680002 -0.215
-19.410999 -4.7150002 -0.214
-19.381001 -4.7719998 -0.213
-18.834999 -5.0479999 -0.204
-18.780001 -5.0970001 -0.20299999
-18.625 -5.1490002 -0.2
-18.556999 -5.1929998 -0.199
-18.497999 -5.2399998 -0.198
-18.448999 -5.2880001 -0.197
-18.396999 -5.336 -0.197
-28.07 2.756 0.296
-27.990999 2.6589999 0.29499999
-27.906 2.563 0.29499999
-27.848 2.4690001 0.29499999
-27.768 2.3740001 0.29499999
-27.686001 2.279 0.294
-27.622999 2.2309999 0.294
-27.546 2.1370001 0.294
-27.469 2.0439999 0.294
-27.4 1.9529999 0.29300001
-27.327999 1.8609999 0.29300001
-27.219999 1.768 0.29300001
-27.177 1.679 0.29300001
-27.254 1.641 0.29300001
-27.291 1.557 0.29300001
-27.224001 1.4680001 0.29300001
-27.142 1.378 0.292
-27.075001 1.289 0.292
-26.995001 1.2 0.292
-26.927999 1.112 0.292
-26.848 1.067 0.292
-26.771 0.97899997 0.29100001
-26.695999 0.89200002 0.29100001
-26.473 0.80199999 0.28999999
-26.266001 0.71200001 0.28999999
-26.202 0.62800002 0.289
-26.134001 0.54400003 0.289
-26.056999 0.461 0.289
-25.974001 0.41800001 0.289
-25.889 0.336 0.28799999
-25.808001 0.25299999 0.28799999
-25.733 0.17200001 0.28799999
-25.655001 0.090999998 0.28799999
-25.573 0.0099999998 0.287
-25.504999 -0.07 0.287
-25.415001 -0.11 0.287
-25.339001 -0.189 0.287
-25.264 -0.26800001 0.28600001
-25.157 -0.34599999 0.28600001
-25.087999 -0.42399999 0.28600001
-25.115999 -0.50400001 0.28600001
-25.163 -0.54400003 0.28600001
-25.143999 -0.62300003 0.28600001
-25.063 -0.69999999 0.28600001
-24.975 -0.77600002 0.28600001
-24.885 -0.85100001 0.285
-24.804001 -0.92699999 0.285
-24.687 -1.0 0.285
-24.594 -1.074 0.28400001
-24.516001 -1.109 0.28400001
-24.198999 -1.171 0.28299999
-24.117001 -1.243 0.28299999
-24.035 -1.3150001 0.28299999
-23.962999 -1.387 0.28200001
-23.885 -1.457 0.28200001
-23.808001 -1.528 0.28200001
-23.732 -1.561 0.28200001
-23.657 -1.63 0.28200001
-23.490999 -1.767 0.28099999
-23.431 -1.837 0.28099999
-23.34 -1.904 0.28099999
-23.246 -1.97 0.28
-23.177 -2.0009999 0.28
-23.201 -2.076 0.28
-23.243999 -2.154 0.28
-23.249001 -2.2279999 0.28
-23.158001 -2.293 0.28
-23.089001 -2.359 0.28
-23.002001 -2.4230001 0.28
-22.923 -2.451 0.27900001
-22.853001 -2.517 0.27900001
-22.777 -2.5810001 0.27900001
-22.686001 -2.6429999 0.27900001
-22.625999 -2.7079999 0.27900001
-22.542 -2.77 0.278
-22.243 -2.8039999 0.27700001
-22.104 -2.822 0.27700001
-22.035 -2.8840001 0.27700001
-21.969 -2.9460001 0.27700001
-21.882 -3.0039999 0.27599999
-21.813 -3.0650001 0.27599999
-21.738001 -3.1240001 0.27599999
-21.655001 -3.181 0.27599999
-21.596001 -3.207 0.27599999
-21.513 -3.2639999 0.27500001
-21.451 -3.3239999 0.27500001
-21.364 -3.3789999 0.27500001
-21.290001 -3.4360001 0.27500001
-21.209999 -3.4920001 0.27500001
-21.153 -3.5510001 0.27399999
-21.079 -3.572 0.27399999
-21.01 -3.6289999 0.27399999
-20.926001 -3.6819999 0.27399999
-20.839001 -3.7349999 0.27399999
-20.77 -3.79 0.273
-20.684 -3.8410001 0.273
-20.707001 -3.9130001 0.273
-20.747 -3.9879999 0.273
-20.865 -4.0440001 0.27399999
-20.761999 -4.092 0.27399999
-20.684 -4.1440001 0.273
-20.579 -4.191 0.273
-20.540001 -4.25 0.273
-20.459999 -4.3010001 0.273
-20.375999 -4.3499999 0.27200001
-20.327999 -4.3730001 0.27200001
-20.261999 -4.4260001 0.27200001
-20.174999 -4.473 0.27200001
-20.103001 -4.5240002 0.27200001
-20.021999 -4.572 0.27200001
-19.926001 -4.6160002 0.271
-19.52 -4.5869999 0.27000001
-19.440001 -4.6009998 0.27000001
-19.371 -4.6490002 0.27000001
-19.318001 -4.6999998 0.26899999
-19.256001 -4.7490001 0.26899999
-19.162001 -4.79 0.26899999
-19.101999 -4.8390002 0.26899999
-19.038 -4.8870001 0.26899999
-18.951 -4.8959999 0.26899999
-18.889 -4.9429998 0.26800001
-18.806 -4.9850001 0.26800001
-18.726 -5.027 0.26800001
-18.656 -5.0710001 0.26800001
-18.608 -5.1209998 0.26800001
-18.507 -5.1560001 0.26699999
-18.473 -5.178 0.26699999
-18.384001 -5.2150002 0.26699999
-28.028 2.658 -1.21
-27.955 2.562 -1.206
-27.799 2.372 -1.197
-27.740999 2.28 -1.194
-27.658001 2.1849999 -1.1900001
-27.59 2.1370001 -1.186
-27.507 2.043 -1.181
-27.433001 1.951 -1.177
-27.353001 1.859 -1.173
-27.264999 1.767 -1.168
-27.177 1.676 -1.164
-27.103001 1.586 -1.16
-27.063 1.499 -1.1569999
-27.063999 1.456 -1.1569999
-26.861 1.3609999 -1.147
-26.767 1.272 -1.142
-26.693001 1.184 -1.138
-26.617001 1.097 -1.1339999
-26.554001 1.011 -1.131
-26.483999 0.92500001 -1.127
-26.391001 0.88 -1.122
-26.327999 0.796 -1.119
-26.252001 0.71100003 -1.115
-26.173 0.62599999 -1.1109999
-26.091 0.54299998 -1.107
-26.01 0.45899999 -1.103
-25.934 0.377 -1.099
-25.844 0.33500001 -1.094
-25.767 0.25299999 -1.09
-25.702 0.171 -1.087
-25.615 0.090999998 -1.0829999
-25.542999 0.0099999998 -1.079
-25.461 -0.07 -1.075
-25.395 -0.149 -1.072
-25.312 -0.189 -1.068
-25.23 -0.26699999 -1.063
-25.141001 -0.345 -1.059
-25.052 -0.42300001 -1.0549999
-24.959 -0.49900001 -1.05
-24.895 -0.57599998 -1.0470001
-24.809 -0.65200001 -1.043
-24.74 -0.68900001 -1.039
-24.662001 -0.764 -1.035
-24.596001 -0.83999997 -1.0319999
-24.500999 -0.91299999 -1.028
-24.436001 -0.98799998 -1.024
-24.344999 -1.061 -1.02
-24.27 -1.1339999 -1.016
-24.195999 -1.168 -1.013
-24.115 -1.24 -1.0089999
-24.035 -1.312 -1.005
-23.934999 -1.382 -1.0
-23.885 -1.454 -0.99800003
-23.802 -1.524 -0.99400002
-23.738001 -1.595 -0.991
-23.667 -1.627 -0.98799998
-23.4 -1.83 -0.97500002
-23.334 -1.899 -0.972
-23.250999 -1.965 -0.96799999
-23.183001 -2.033 -0.96499997
-23.097 -2.098 -0.96100003
-23.018 -2.128 -0.95700002
-22.937 -2.1930001 -0.95300001
-22.865 -2.2579999 -0.94999999
-22.788 -2.323 -0.94700003
-22.707001 -2.3870001 -0.94300002
-22.634001 -2.451 -0.94
-22.559 -2.5139999 -0.93599999
-22.485001 -2.5420001 -0.93300003
-22.427999 -2.6070001 -0.93000001
-22.348 -2.6689999 -0.92699999
-22.274 -2.7309999 -0.92299998
-22.184 -2.79 -0.91900003
-22.115999 -2.852 -0.91600001
-22.041 -2.9130001 -0.91299999
-21.985001 -2.941 -0.91000003
-21.886999 -2.997 -0.90600002
-21.812 -3.0569999 -0.90200001
-21.731001 -3.115 -0.89899999
-21.656 -3.174 -0.89600003
-21.583 -3.2320001 -0.89200002
-21.533001 -3.2939999 -0.88999999
-21.434999 -3.313 -0.88599998
-21.365 -3.3710001 -0.88300002
-21.284 -3.427 -0.87900001
-21.216 -3.484 -0.87599999
-21.134001 -3.539 -0.87199998
-21.063999 -3.595 -0.86900002
-20.981001 -3.6489999 -0.866
-20.92 -3.6719999 -0.86299998
-20.929001 -3.7409999 -0.86400002
-20.844 -3.7939999 -0.86000001
-20.783001 -3.8499999 -0.85799998
-20.726999 -3.9070001 -0.85600001
-20.771999 -3.983 -0.85900003
-20.801001 -4.0570002 -0.861
-20.827 -4.0960002 -0.86199999
-20.778999 -4.1539998 -0.861
-20.688 -4.2030001 -0.85699999
-20.614 -4.256 -0.85299999
-20.535999 -4.3070002 -0.85000002
-20.458 -4.3579998 -0.847
-20.415001 -4.415 -0.84500003
-20.343 -4.4330001 -0.84200001
-20.271 -4.4840002 -0.83899999
-20.198 -4.5349998 -0.83600003
-20.098 -4.579 -0.83200002
-20.016001 -4.6259999 -0.82800001
-19.931 -4.6719999 -0.824
-19.530001 -4.6420002 -0.80400002
-19.448 -4.6550002 -0.801
-19.362 -4.6989999 -0.79699999
-18.742001 -5.0180001 -0.77100003
-18.663 -5.0599999 -0.76700002
-18.599001 -5.105 -0.76499999
-18.533001 -5.1490002 -0.76200002
-18.396 -5.2360001 -0.75700003
-18.337999 -5.2509999 -0.75400001
-18.26 -5.29 -0.75099999
-28.09 2.7049999 0.98400003
-28.048 2.612 0.98299998
-27.971001 2.516 0.98000002
-27.863001 2.418 0.977
-27.799 2.3239999 0.97500002
-27.718 2.23 0.97299999
-27.653999 2.181 0.97100002
-27.584999 2.0880001 0.96899998
-27.511999 1.995 0.96700001
-27.440001 1.904 0.96399999
-27.362 1.812 0.96200001
-27.261999 1.719 0.95899999
-27.237 1.631 0.958
-27.322001 1.594 0.96100003
-27.558001 1.521 0.96700001
-27.495001 1.431 0.96499997
-27.641001 1.351 0.96899998
-26.976 1.1059999 0.94999999
-27.187 1.029 0.95599997
-27.274 0.94700003 0.95899999
-26.354 0.74800003 0.93300003
-26.296 0.66399997 0.93099999
-26.246 0.57999998 0.93000001
-26.174 0.49599999 0.92799997
-26.083 0.45300001 0.92500001
-25.958 0.36899999 0.92199999
-25.881001 0.287 0.92000002
-25.798 0.205 0.91799998
-25.724001 0.123 0.91500002
-25.641001 0.041999999 0.91299999
-25.527 -0.037999999 0.91000003
-25.497 -0.078000002 0.90899998
-25.566 -0.15899999 0.91100001
-25.598 -0.23899999 0.912
-25.579 -0.31999999 0.912
-25.83 -0.40400001 0.91799998
-25.976 -0.48699999 0.92299998
-25.209999 -0.59299999 0.90200001
-25.294001 -0.67400002 0.90399998
-25.504 -0.75999999 0.91000003
-25.679001 -0.84500003 0.91500002
-24.502001 -0.96200001 0.88200003
-24.461 -1.0369999 0.88099998
-24.396 -1.073 0.88
-24.313999 -1.146 0.87699997
-24.231001 -1.219 0.875
-24.150999 -1.291 0.87300003
-24.073 -1.362 0.87099999
-24.007 -1.434 0.86900002
-23.93 -1.505 0.86699998
-23.858 -1.539 0.866
-23.778999 -1.609 0.86400002
-23.712 -1.679 0.86199999
-23.540001 -1.816 0.85699999
-23.464001 -1.8839999 0.85500002
-23.375999 -1.951 0.85299999
-23.280001 -1.98 0.85100001
-23.216999 -2.0480001 0.84899998
-23.268999 -2.1259999 0.85100001
-23.302 -2.2030001 0.852
-23.462 -2.293 0.85600001
-23.368999 -2.358 0.85399997
-23.572001 -2.4530001 0.86000001
-22.881001 -2.563 0.84100002
-22.959999 -2.645 0.84399998
-22.878 -2.7090001 0.84200001
-22.198999 -2.8410001 0.824
-22.132999 -2.868 0.82200003
-22.066 -2.9300001 0.81999999
-21.997999 -2.9920001 0.81900001
-21.921 -3.0510001 0.81699997
-21.844 -3.1110001 0.815
-21.768999 -3.1700001 0.81300002
-21.691 -3.2279999 0.81099999
-21.632999 -3.2550001 0.81
-21.549 -3.3110001 0.80800003
-21.468 -3.368 0.80599999
-21.414 -3.428 0.80500001
-21.309999 -3.4809999 0.80199999
-21.253 -3.54 0.801
-21.179001 -3.596 0.79900002
-21.110001 -3.619 0.79699999
-21.034 -3.674 0.79500002
-20.961 -3.7290001 0.79400003
-20.867001 -3.78 0.79100001
-20.796 -3.835 0.79000002
-20.726999 -3.8889999 0.78799999
-20.638 -3.9400001 0.78600001
-20.577 -3.9619999 0.78399998
-20.490999 -4.0120001 0.78200001
-20.42 -4.0650001 0.78100002
-20.337999 -4.1149998 0.77899998
-20.275999 -4.1690001 0.77700001
-20.183001 -4.2160001 0.77499998
-20.111 -4.2670002 0.77399999
-20.051001 -4.2880001 0.77200001
-19.969 -4.336 0.76999998
-19.907 -4.388 0.76899999
-19.836 -4.4380002 0.76700002
-19.754 -4.4850001 0.76499999
-19.674 -4.5320001 0.76300001
-19.611 -4.5819998 0.76200002
-19.545 -4.599 0.75999999
-19.482 -4.6490002 0.759
-19.396999 -4.6929998 0.75700003
-19.351 -4.7470002 0.75599998
-19.282 -4.7940001 0.755
-19.202999 -4.8390002 0.75300002
-19.127001 -4.8839998 0.75099999
-19.066999 -4.9000001 0.75
-18.988001 -4.9439998 0.74800003
-18.745001 -5.0700002 -1.4680001
-18.843 -5.033 0.745
-18.764999 -5.0749998 0.74299997
-18.697001 -5.1199999 0.741
-18.622999 -5.1630001 0.74000001
-18.568001 -5.1789999 0.73799998
-18.51 -5.2259998 0.73699999
-22.665001 -1.999 -1.624
-22.653 -2.0699999 -1.624
-22.615999 -2.102 -1.6210001
-18.677 -5.0830002 -1.4630001
-22.416 -2.5109999 -1.609
-22.374001 -2.5769999 -1.6059999
-22.336 -2.609 -1.603
-22.233 -2.668 -1.596
-22.195 -2.734 -1.5930001
-22.167999 -2.8010001 -1.592
-22.125999 -2.8670001 -1.589
-22.048 -2.927 -1.5829999
-21.969 -2.987 -1.5779999
-21.886999 -3.0109999 -1.572
-21.761 -3.063 -1.562
-21.681 -3.191 -1.557
-20.975 -3.6630001 -1.507
-20.903999 -3.7179999 -1.502
-20.92 -3.7550001 -1.5039999
-20.851 -3.8099999 -1.5
-20.763 -3.862 -1.493
-20.725 -3.9219999 -1.4910001
-20.652 -3.9749999 -1.4859999
-20.612 -4.0349998 -1.484
-20.587 -4.0970001 -1.483
-20.587 -4.131 -1.484
-20.556 -4.1919999 -1.482
-20.354 -4.4180002 -1.47
-20.289 -4.4710002 -1.466
-20.214001 -4.4879999 -1.46
-20.122 -4.5339999 -1.454
-19.971001 -4.632 -1.444
-19.74 -4.6440001 -1.426
-19.511999 -4.6550002 -1.408
-19.417999 -4.698 -1.402
-19.295 -4.6999998 -1.392
-18.815001 -4.993 -1.3609999
-18.757 -5.0409999 -1.357
-18.66 -5.0780001 -1.35
-18.555 -5.112 -1.3430001
-18.375999 -5.2490001 -1.332
-18.322001 -5.2649999 -1.3279999
-18.605 -5.1269999 -1.4579999
-28.148001 2.6919999 -0.53299999
-28.070999 2.596 -0.52999997
-27.992001 2.5 -0.528
-27.926001 2.4059999 -0.52600002
-27.851 2.3110001 -0.52399999
-27.761 2.2160001 -0.52200001
-27.695999 2.1229999 -0.51999998
-27.627001 2.0309999 -0.51800001
-27.546 1.982 -0.51499999
-27.476 1.89 -0.51300001
-27.408001 1.799 -0.51200002
-27.326 1.707 -0.509
-27.247 1.617 -0.50700003
-27.177999 1.527 -0.505
-27.103001 1.437 -0.50300002
-27.032 1.391 -0.50099999
-26.952 1.302 -0.49900001
-26.872 1.214 -0.49700001
-26.812 1.127 -0.495
-26.739 1.04 -0.493
-26.65 0.95200002 -0.491
-26.583 0.866 -0.48899999
-26.497 0.82200003 -0.48699999
-26.433001 0.73699999 -0.48500001
-26.351 0.65200001 -0.48300001
-26.277 0.56800002 -0.48100001
-26.198999 0.484 -0.479
-26.122999 0.40000001 -0.477
-26.054001 0.317 -0.47499999
-25.968 0.27599999 -0.472
-25.893 0.193 -0.47099999
-25.816 0.112 -0.46799999
-25.736 0.030999999 -0.46599999
-25.66 -0.050000001 -0.46399999
-25.573 -0.13 -0.46200001
-25.495001 -0.20999999 -0.46000001
-25.417 -0.249 -0.458
-25.348 -0.32800001 -0.456
-25.257 -0.40599999 -0.454
-25.188999 -0.484 -0.45199999
-25.115999 -0.56099999 -0.44999999
-25.032 -0.63800001 -0.44800001
-24.954 -0.71399999 -0.44600001
-24.864 -0.79000002 -0.44400001
-24.788 -0.82599998 -0.442
-24.716 -0.90200001 -0.44
-24.635 -0.97600001 -0.43799999
-24.562 -1.05 -0.43599999
-24.486 -1.124 -0.43399999
-24.405001 -1.197 -0.43200001
-24.319 -1.2690001 -0.43000001
-24.249001 -1.304 -0.42899999
-24.167 -1.376 -0.42699999
-24.093 -1.447 -0.42500001
-24.016001 -1.518 -0.42300001
-23.945999 -1.589 -0.421
-23.858999 -1.659 -0.419
-23.788 -1.691 -0.417
-23.712999 -1.761 -0.41499999
-23.629999 -1.829 -0.41299999
-23.535999 -1.896 -0.41100001
-23.482 -1.966 -0.41
-23.392 -2.033 -0.40799999
-23.23 -2.165 -0.40400001
-23.171 -2.197 -0.40200001
-23.035999 -2.257 -0.39899999
-22.973 -2.323 -0.39700001
-22.882999 -2.3870001 -0.39500001
-22.813 -2.4519999 -0.39399999
-22.724001 -2.5139999 -0.391
-22.66 -2.579 -0.38999999
-22.583 -2.6059999 -0.38800001
-22.511 -2.6700001 -0.38600001
-22.431 -2.7320001 -0.38499999
-22.353001 -2.793 -0.38299999
-22.273001 -2.8540001 -0.38100001
-22.200001 -2.9159999 -0.37900001
-22.118 -2.9760001 -0.377
-22.059 -3.003 -0.37599999
-21.981001 -3.063 -0.37400001
-21.902 -3.122 -0.37200001
-21.834 -3.1819999 -0.37099999
-21.740999 -3.2379999 -0.368
-21.664 -3.296 -0.36700001
-21.58 -3.3529999 -0.36500001
-21.524 -3.3789999 -0.36300001
-21.434 -3.4330001 -0.361
-21.372 -3.4920001 -0.36000001
-21.298 -3.549 -0.35800001
-21.221001 -3.605 -0.35699999
-21.146999 -3.6600001 -0.35499999
-21.068001 -3.7149999 -0.35299999
-21.014999 -3.7390001 -0.352
-20.915001 -3.789 -0.34999999
-20.848 -3.845 -0.34799999
-20.790001 -3.902 -0.347
-20.844999 -3.98 -0.34900001
-20.858 -4.0500002 -0.34900001
-20.892 -4.125 -0.35100001
-20.858 -4.152 -0.34999999
-20.761 -4.2010002 -0.34799999
-20.669001 -4.25 -0.34599999
-20.611 -4.3049998 -0.34400001
-20.525999 -4.355 -0.34200001
-20.479 -4.4120002 -0.34200001
-20.415001 -4.4650002 -0.34
-20.336 -4.4809999 -0.338
-20.273001 -4.5339999 -0.33700001
-20.155001 -4.5739999 -0.33399999
-20.059 -4.619 -0.33199999
-20.021 -4.6760001 -0.331
-19.594 -4.6409998 -0.31999999
-19.546 -4.6939998 -0.31900001
-19.43 -4.7309999 -0.317
-19.409 -4.7579999 -0.31600001
-18.802999 -5.0819998 -0.303
-18.733 -5.1259999 -0.30199999
-18.690001 -5.177 -0.301
-18.601 -5.2150002 -0.29899999
-18.555 -5.2649999 -0.29800001
-18.469999 -5.3039999 -0.296
-18.396 -5.3140001 -0.29499999
-18.688 -5.0609999 -1.13
-18.615999 -5.1040001 -1.126
-18.554001 -5.1500001 -1.123
-18.482 -5.1609998 -1.118
-18.412001 -5.204 -1.114
-18.355 -5.2509999 -1.1109999
-18.295 -5.296 -1.108
-28.209 2.7880001 0.163
-28.166 2.694 0.163
-28.091 2.598 0.163
-28.017 2.5020001 0.163
-27.938999 2.4070001 0.163
-27.865 2.313 0.163
-27.792 2.2190001 0.163
-27.722 2.1689999 0.163
-27.646999 2.076 0.164
-27.566999 1.983 0.164
-27.5 1.892 0.164
-27.422001 1.8 0.164
-27.240999 1.702 0.164
-27.160999 1.612 0.164
-27.08 1.522 0.164
-27.004 1.475 0.16500001
-26.938999 1.386 0.16500001
-26.863001 1.298 0.16500001
-26.799 1.211 0.16500001
-26.739 1.124 0.16500001
-26.674 1.0369999 0.16500001
-26.608 0.95099998 0.16500001
-26.535 0.90700001 0.16500001
-26.474001 0.82099998 0.16500001
-26.42 0.73699999 0.16599999
-26.378 0.653 0.16599999
-26.308001 0.56800002 0.16599999
-26.233999 0.484 0.16599999
-26.143 0.442 0.16599999
-26.059999 0.35800001 0.16599999
-25.989 0.27599999 0.16599999
-25.92 0.19400001 0.16599999
-25.832001 0.112 0.16599999
-25.75 0.030999999 0.167
-25.68 -0.050000001 0.167
-25.598 -0.13 0.167
-25.516001 -0.17 0.167
-25.267 -0.24699999 0.167
-25.190001 -0.32499999 0.167
-25.111 -0.403 0.168
-25.035999 -0.48100001 0.168
-24.950001 -0.55699998 0.168
-24.864 -0.63300002 0.168
-24.791 -0.67000002 0.168
-24.716999 -0.74599999 0.168
-24.639 -0.82099998 0.168
-24.568001 -0.89600003 0.168
-24.584999 -0.97399998 0.168
-24.525999 -1.049 0.168
-24.455 -1.123 0.169
-24.375 -1.1569999 0.169
-24.306999 -1.23 0.169
-24.212 -1.302 0.169
-24.131001 -1.373 0.169
-24.069 -1.446 0.169
-23.985001 -1.516 0.169
-23.91 -1.587 0.169
-23.826 -1.619 0.169
-23.757 -1.689 0.17
-23.594 -1.826 0.17
-23.530001 -1.896 0.17
-23.452 -1.9630001 0.17
-23.268999 -2.0220001 0.17
-23.177999 -2.05 0.17
-23.094 -2.1159999 0.171
-23.014999 -2.1819999 0.171
-22.929001 -2.2460001 0.171
-22.858 -2.3110001 0.171
-22.775 -2.375 0.171
-22.704 -2.4400001 0.171
-22.632 -2.4679999 0.171
-22.552999 -2.5309999 0.171
-22.476999 -2.5940001 0.171
-22.403999 -2.6570001 0.17200001
-22.327999 -2.7190001 0.17200001
-22.254999 -2.7809999 0.17200001
-22.215 -2.8469999 0.17200001
-22.212 -2.882 0.17200001
-22.142 -2.9430001 0.17200001
-22.084999 -3.006 0.17200001
-21.982 -3.063 0.17200001
-21.927 -3.125 0.17200001
-21.841999 -3.1830001 0.17200001
-21.774 -3.243 0.17200001
-21.687 -3.3 0.17200001
-21.618 -3.3239999 0.17299999
-21.533001 -3.3800001 0.17299999
-21.459 -3.437 0.17299999
-21.386999 -3.4949999 0.17299999
-21.315001 -3.552 0.17299999
-21.246 -3.609 0.17299999
-21.146 -3.6600001 0.17299999
-21.111 -3.688 0.17299999
-21.021999 -3.7409999 0.17299999
-20.948999 -3.7950001 0.17299999
-20.886 -3.852 0.17399999
-20.782 -3.9000001 0.17399999
-20.822001 -3.9749999 0.17399999
-20.863001 -4.0510001 0.17399999
-20.902 -4.0929999 0.17299999
-20.882999 -4.1570001 0.17299999
-20.783001 -4.2049999 0.17399999
-20.695999 -4.2550001 0.17399999
-20.635 -4.3099999 0.17399999
-20.542999 -4.3579998 0.17399999
-20.502001 -4.4169998 0.17399999
-20.450001 -4.4390001 0.17399999
-20.375999 -4.4899998 0.17399999
-20.309 -4.5419998 0.17399999
-20.202999 -4.585 0.17399999
-20.118 -4.632 0.17399999
-20.028999 -4.678 0.175
-19.627001 -4.6490002 0.175
-19.568001 -4.6669998 0.175
-19.473 -4.7090001 0.175
-19.416 -4.7600002 0.175
-19.35 -4.8080001 0.176
-19.261 -4.8499999 0.176
-19.209 -4.901 0.176
-19.118 -4.9419999 0.176
-19.062 -4.9590001 0.176
-18.988001 -5.0040002 0.176
-18.909 -5.046 0.176
-18.843 -5.092 0.176
-18.771999 -5.1360002 0.176
-18.688999 -5.177 0.176
-18.628 -5.223 0.176
-18.576 -5.2399998 0.177
-18.473 -5.2729998 0.177
-18.429001 -5.323 0.177
-21.243999 -2.523 -1.638
-21.252001 -2.5580001 -1.6390001
-21.204 -2.6199999 -1.636
-21.195999 -2.6860001 -1.636
-21.165001 -2.75 -1.6339999
-21.122999 -2.812 -1.631
-21.091999 -2.875 -1.6289999
-21.066999 -2.9389999 -1.628
-21.021 -2.9660001 -1.624
-21.006001 -3.0320001 -1.624
-20.951 -3.0910001 -1.62
-20.797001 -3.369 -1.61
-20.639999 -3.677 -1.601
-20.594999 -3.7360001 -1.598
-20.573 -3.7650001 -1.597
-20.545 -3.8269999 -1.596
-20.516001 -3.888 -1.594
-20.468 -3.9460001 -1.591
-20.334 -4.119 -1.5829999
-27.992001 2.598 -1.387
-27.948999 2.549 -1.3839999
-27.802999 2.448 -1.375
-27.723 2.3529999 -1.37
-27.631001 2.2579999 -1.365
-27.58 2.1659999 -1.3609999
-27.476 2.0710001 -1.355
-27.408001 1.979 -1.351
-27.386999 1.9349999 -1.349
-27.396999 1.849 -1.35
-27.367001 1.76 -1.348
-27.309 1.67 -1.344
-26.811001 1.344 -1.3150001
-26.721001 1.255 -1.3099999
-26.646999 1.168 -1.3049999
-26.561001 1.08 -1.3
-26.51 0.995 -1.2970001
-26.43 0.90799999 -1.2920001
-26.339001 0.82200003 -1.2869999
-26.285999 0.77899998 -1.284
-26.212 0.69499999 -1.28
-26.118999 0.61000001 -1.274
-26.056999 0.52700001 -1.271
-25.789 0.278 -1.255
-25.743 0.237 -1.253
-25.653999 0.155 -1.248
-25.584999 0.074000001 -1.244
-25.500999 -0.0060000001 -1.239
-25.421 -0.086000003 -1.234
-25.348 -0.16500001 -1.23
-25.302 -0.245 -1.228
-25.298 -0.28400001 -1.228
-25.261 -0.36300001 -1.225
-25.145 -0.44100001 -1.219
-25.054001 -0.51800001 -1.214
-25.007999 -0.59600002 -1.211
-24.900999 -0.67199999 -1.205
-24.721001 -0.745 -1.1950001
-24.614 -0.77999997 -1.189
-24.537001 -0.85500002 -1.1849999
-24.459 -0.92900002 -1.181
-24.362 -1.002 -1.176
-24.295 -1.076 -1.1720001
-24.218 -1.149 -1.168
-24.142 -1.222 -1.164
-24.058001 -1.293 -1.159
-23.986 -1.327 -1.155
-23.9 -1.398 -1.151
-23.836 -1.469 -1.147
-23.743999 -1.539 -1.142
-23.688999 -1.61 -1.14
-23.427 -1.777 -1.125
-23.361 -1.846 -1.122
-23.278 -1.913 -1.118
-23.205999 -1.9809999 -1.114
-23.125999 -2.0469999 -1.11
-23.042 -2.1129999 -1.105
-23.031 -2.1849999 -1.105
-23.034 -2.2219999 -1.105
-22.969 -2.2880001 -1.102
-22.865999 -2.3510001 -1.097
-22.805 -2.4170001 -1.094
-22.645 -2.5439999 -1.085
-22.375 -2.6210001 -1.071
-22.295 -2.6830001 -1.067
-22.211 -2.744 -1.062
-22.129 -2.8039999 -1.058
-22.063 -2.8659999 -1.0549999
-21.982 -2.9260001 -1.051
-21.906 -2.9860001 -1.0470001
-21.836 -3.0120001 -1.043
-21.754999 -3.0699999 -1.039
-21.677999 -3.1289999 -1.035
-21.599001 -3.187 -1.0319999
-21.527 -3.2460001 -1.028
-21.455999 -3.3039999 -1.025
-21.371 -3.3599999 -1.02
-21.308001 -3.3840001 -1.017
-21.238001 -3.441 -1.0140001
-21.158001 -3.497 -1.01
-21.08 -3.552 -1.006
-21.006001 -3.608 -1.002
-20.926001 -3.6619999 -0.99800003
-20.871 -3.72 -0.99599999
-20.871 -3.7539999 -0.99599999
-20.778 -3.8039999 -0.991
-20.711 -3.8599999 -0.98799998
-20.725 -3.9289999 -0.99000001
-20.757 -4.0029998 -0.99199998
-20.719 -4.0630002 -0.991
-20.781 -4.1430001 -0.995
-20.711 -4.1630001 -0.99199998
-20.608 -4.21 -0.986
-20.549999 -4.2649999 -0.98400003
-20.478001 -4.3179998 -0.98000002
-20.4 -4.368 -0.977
-20.361 -4.427 -0.97500002
-20.274 -4.4749999 -0.97100002
-20.209 -4.494 -0.96799999
-20.143999 -4.546 -0.96499997
-20.048 -4.5910001 -0.95999998
-19.959 -4.6370001 -0.95599997
-19.544001 -4.605 -0.93199998
-19.473 -4.6529999 -0.92900002
-19.377001 -4.6950002 -0.92400002
-19.252001 -4.7290001 -0.91799998
-18.686001 -5.0289998 -0.89099997
-18.625999 -5.0749998 -0.889
-18.533001 -5.1129999 -0.884
-18.490999 -5.164 -0.88300002
-18.271 -5.289 -0.87300003
-18.316 -5.2950001 -1.438
-26.107 0.461 -1.4119999
-28.114 2.671 0.85100001
-28.07 2.5780001 0.85000002
-27.985001 2.4820001 0.84799999
-27.905001 2.3859999 0.84600002
-27.844 2.293 0.84500003
-27.774 2.2 0.84299999
-27.673 2.148 0.83999997
-27.614 2.056 0.83899999
-27.541 1.964 0.83700001
-27.473 1.872 0.83499998
-27.379 1.78 0.833
-27.292999 1.688 0.83099997
-27.309999 1.603 0.83099997
-27.385 1.521 0.833
-27.593 1.489 0.838
-27.167999 1.381 0.82800001
-27.768999 1.323 0.84100002
-26.722 1.1059999 0.81699997
-26.677 1.02 0.81599998
-26.618999 0.935 0.815
-26.534 0.88999999 0.81300002
-26.461 0.80400002 0.81099999
-26.375 0.71899998 0.80900002
-26.297001 0.634 0.80699998
-26.212999 0.55000001 0.80500001
-26.136999 0.46599999 0.80400002
-26.062 0.38299999 0.80199999
-25.979 0.34099999 0.80000001
-25.9 0.259 0.79799998
-25.825001 0.177 0.796
-25.745001 0.096000001 0.79500002
-25.649 0.015 0.792
-25.556999 -0.066 0.79000002
-25.556999 -0.146 0.79000002
-25.608999 -0.186 0.792
-25.622 -0.26699999 0.792
-25.507 -0.34599999 0.78899997
-25.889999 -0.433 0.79799998
-25.229 -0.65899998 0.78299999
-25.368 -0.70300001 0.78600001
-25.811001 -0.796 0.796
-24.597 -0.91299999 0.76899999
-24.534 -0.98699999 0.76800001
-24.479 -1.062 0.76599997
-24.410999 -1.136 0.76499999
-24.339001 -1.171 0.76300001
-24.254 -1.243 0.76099998
-24.177999 -1.3150001 0.75999999
-24.106001 -1.387 0.75800002
-24.023001 -1.4579999 0.75599998
-23.945 -1.529 0.755
-23.892 -1.601 0.75400001
-24.031 -1.648 0.75700003
-23.753 -1.704 0.75099999
-20.846001 -3.276 -1.613
-23.559999 -1.839 0.74699998
-23.489 -1.9069999 0.745
-23.399 -1.974 0.74299997
-23.299 -2.039 0.741
-23.264 -2.1099999 0.74000001
-23.323 -2.152 0.74199998
-23.354 -2.2290001 0.74299997
-23.540001 -2.3210001 0.74699998
-23.506001 -2.3929999 0.74599999
-23.643999 -2.4820001 0.75
-22.906 -2.586 0.73299998
-23.066999 -2.678 0.73699999
-20.417 -4.0019999 -1.5880001
-20.382 -4.0619998 -1.586
-22.223 -2.862 0.71899998
-22.166 -2.9260001 0.71700001
-20.146999 -4.2459998 -1.569
-20.084999 -4.2979999 -1.5650001
-21.952 -3.073 0.713
-21.867001 -3.131 0.71100003
-21.794001 -3.1900001 0.70999998
-21.719 -3.2490001 0.708
-21.650999 -3.3080001 0.70700002
-21.583 -3.332 0.70599997
-21.503 -3.3889999 0.704
-21.424999 -3.4460001 0.70300001
-21.351 -3.503 0.70099998
-21.278999 -3.559 0.69999999
-21.200001 -3.615 0.69800001
-21.128 -3.671 0.69700003
-21.066999 -3.694 0.69499999
-20.988001 -3.7479999 0.69400001
-20.898001 -3.8 0.69199997
-20.825001 -3.8540001 0.69099998
-20.764999 -3.9100001 0.69
-20.812 -3.987 0.69099998
-20.854 -4.0630002 0.69199997
-20.891001 -4.1040001 0.69300002
-20.843 -4.1630001 0.69199997
-20.753 -4.2129998 0.69099998
-20.653999 -4.2600002 0.68900001
-20.605 -4.3179998 0.68800002
-20.533001 -4.3699999 0.68599999
-20.448 -4.4190001 0.685
-20.377001 -4.4369998 0.68300003
-20.306 -4.4879999 0.68199998
-20.23 -4.5380001 0.68000001
-20.169001 -4.5910001 0.67900002
-20.084 -4.638 0.67799997
-19.969999 -4.678 0.67500001
-19.57 -4.6479998 0.66600001
-19.507 -4.665 0.66500002
-19.434 -4.7119999 0.66399997
-19.389999 -4.7659998 0.66299999
-19.316 -4.8130002 0.662
-19.231001 -4.8559999 0.66000003
-19.152 -4.9000001 0.65899998
-19.084 -4.9460001 0.65700001
-19.02 -4.961 0.65600002
-18.951 -5.007 0.65499997
-18.861 -5.046 0.653
-18.797001 -5.0929999 0.65200001
-18.731001 -5.138 0.65100002
-18.655001 -5.1799998 0.64899999
-18.594 -5.2259998 0.648
-18.525999 -5.27 0.64700001
-18.472 -5.2849998 0.64600003
-26.507999 0.90399998 -0.16599999
-28.041 2.628 -0.69700003
-27.952 2.5309999 -0.69400001
-27.875999 2.48 -0.69099998
-27.813999 2.3870001 -0.68900001
-27.712 2.29 -0.68599999
-27.653 2.198 -0.68400002
-27.572001 2.1040001 -0.68099999
-27.499001 2.0120001 -0.67799997
-27.434999 1.92 -0.676
-27.351 1.8710001 -0.67299998
-27.268999 1.779 -0.67000002
-27.186001 1.688 -0.667
-27.108 1.598 -0.66500002
-27.021 1.507 -0.662
-26.952999 1.419 -0.66000003
-26.896 1.331 -0.65799999
-26.816 1.284 -0.65499997
-26.728001 1.196 -0.65200001
-26.681999 1.11 -0.64999998
-26.605 1.023 -0.648
-26.538 0.93699998 -0.64600003
-26.452999 0.85100001 -0.64300001
-26.388 0.76499999 -0.64099997
-26.287001 0.72100002 -0.63700002
-26.223 0.63700002 -0.63499999
-26.155001 0.55299997 -0.63300002
-26.087 0.46900001 -0.63099998
-26.02 0.38600001 -0.62900001
-25.940001 0.30399999 -0.62599999
-25.865999 0.221 -0.62400001
-25.799 0.14 -0.62099999
-25.733 0.098999999 -0.61900002
-25.646999 0.017999999 -0.61699998
-25.563 -0.063000001 -0.61400002
-25.489 -0.14300001 -0.611
-25.409 -0.222 -0.60900003
-25.332001 -0.301 -0.60600001
-25.261 -0.38 -0.60399997
-25.177999 -0.41800001 -0.602
-25.101 -0.49599999 -0.59899998
-25.023001 -0.57300001 -0.597
-24.941 -0.64999998 -0.59399998
-24.867001 -0.72600001 -0.59200001
-24.789 -0.80199999 -0.58899999
-24.719999 -0.838 -0.58700001
-24.631001 -0.91299999 -0.58499998
-24.559999 -0.98799998 -0.58200002
-24.476999 -1.061 -0.57999998
-24.402 -1.135 -0.57700002
-24.322001 -1.2079999 -0.57499999
-24.25 -1.281 -0.57300001
-24.167999 -1.353 -0.56999999
-24.096001 -1.387 -0.56800002
-23.974001 -1.455 -0.56400001
-23.886 -1.526 -0.56199998
-23.829 -1.597 -0.56
-23.733999 -1.666 -0.55699998
-23.559999 -1.803 -0.55199999
-23.511 -1.836 -0.55000001
-23.421 -1.903 -0.54799998
-23.358999 -1.972 -0.546
-23.264 -2.0380001 -0.54299998
-23.198999 -2.1059999 -0.54100001
-23.113001 -2.171 -0.53899997
-23.048 -2.2379999 -0.537
-22.957001 -2.266 -0.53399998
-22.898001 -2.3329999 -0.53200001
-22.799 -2.395 -0.52899998
-22.736 -2.461 -0.528
-22.646999 -2.523 -0.52499998
-22.591 -2.589 -0.523
-22.500999 -2.6500001 -0.52100003
-22.436001 -2.6789999 -0.51899999
-22.346001 -2.7390001 -0.51599997
-22.282 -2.802 -0.514
-22.188999 -2.862 -0.51200002
-22.129 -2.925 -0.50999999
-22.048 -2.9849999 -0.50800002
-21.973 -3.0450001 -0.50599998
-21.905001 -3.0710001 -0.50400001
-21.816 -3.128 -0.50099999
-21.745001 -3.188 -0.49900001
-21.666 -3.2460001 -0.49700001
-21.582001 -3.303 -0.49399999
-21.518 -3.362 -0.493
-21.429001 -3.4170001 -0.49000001
-21.360001 -3.441 -0.48800001
-21.288 -3.4979999 -0.486
-21.222 -3.556 -0.484
-21.149 -3.612 -0.48199999
-21.075001 -3.6670001 -0.47999999
-20.996 -3.7219999 -0.47799999
-20.917999 -3.776 -0.47600001
-20.830999 -3.7939999 -0.47299999
-20.766001 -3.8499999 -0.472
-20.76 -3.9159999 -0.472
-20.812 -3.994 -0.47400001
-20.892 -4.0770001 -0.477
-20.834 -4.1339998 -0.47499999
-20.746 -4.184 -0.47299999
-20.66 -4.2340002 -0.47099999
-20.603001 -4.256 -0.46900001
-20.538 -4.3109999 -0.46700001
-20.455999 -4.3610001 -0.465
-20.400999 -4.4159999 -0.46399999
-20.329 -4.467 -0.46200001
-20.252001 -4.5170002 -0.46000001
-20.167999 -4.5650001 -0.45699999
-20.083 -4.579 -0.45500001
-19.99 -4.6240001 -0.45199999
-19.643 -4.6090002 -0.44100001
-19.525 -4.6469998 -0.43799999
-19.427 -4.6880002 -0.435
-18.742001 -5.0879998 -0.417
-18.655001 -5.1279998 -0.41499999
-18.591999 -5.1729999 -0.41299999
-18.534 -5.2199998 -0.412
-18.465 -5.263 -0.41
-18.362 -5.2969999 -0.40700001
-22.09 -2.951 0.71600002
-22.028999 -3.013 0.71499997
-28.139 2.7290001 -0.017000001
-28.072001 2.6329999 -0.016000001
-27.995001 2.582 -0.016000001
-27.923 2.487 -0.015
-27.849001 2.392 -0.014
-27.771 2.2969999 -0.014
-27.705999 2.204 -0.013
-27.632999 2.1110001 -0.013
-27.558001 2.0179999 -0.012
-27.479 1.969 -0.011
-27.407 1.877 -0.011
-27.333 1.786 -0.0099999998
-27.249001 1.694 -0.0089999996
-27.18 1.604 -0.0089999996
-27.101 1.5140001 -0.0080000004
-27.030001 1.467 -0.0070000002
-26.958 1.378 -0.0070000002
-26.889 1.29 -0.0060000001
-26.802999 1.201 -0.0060000001
-26.732 1.114 -0.0049999999
-26.658001 1.027 -0.0040000002
-26.589001 0.94099998 -0.0040000002
-26.506001 0.85399997 -0.003
-26.438999 0.81 -0.003
-26.315001 0.72399998 -0.0020000001
-26.236 0.639 -0.001
-26.156 0.55500001 -0.0
-26.079 0.47099999 0.0
-26.004999 0.38800001 0.001
-25.922001 0.30500001 0.0020000001
-25.834 0.26300001 0.0020000001
-25.763 0.182 0.003
-25.681 0.1 0.003
-25.601 0.02 0.0040000002
-25.527 -0.061000001 0.0049999999
-25.447001 -0.141 0.0049999999
-25.372999 -0.22 0.0060000001
-25.298 -0.259 0.0060000001
-25.221001 -0.338 0.0070000002
-25.143999 -0.41600001 0.0080000004
-25.063 -0.493 0.0080000004
-24.989 -0.56999999 0.0089999996
-24.896999 -0.64700001 0.0099999998
-24.819 -0.72299999 0.0099999998
-24.747999 -0.75999999 0.011
-24.665001 -0.83499998 0.011
-24.597 -0.91000003 0.012
-24.514 -0.98400003 0.013
-24.445 -1.058 0.013
-24.349001 -1.131 0.014
-24.274 -1.204 0.014
-24.195999 -1.238 0.015
-24.118 -1.3099999 0.016000001
-24.040001 -1.382 0.016000001
-23.964001 -1.4529999 0.017000001
-23.886999 -1.524 0.017000001
-23.822001 -1.595 0.017999999
-23.791 -1.668 0.017999999
-23.540001 -1.762 0.02
-23.497999 -1.8329999 0.02
-23.424 -1.902 0.021
-23.357 -1.97 0.021
-23.275 -2.0369999 0.022
-23.202 -2.1040001 0.022
-23.111 -2.1329999 0.023
-23.042999 -2.1989999 0.023
-22.950001 -2.263 0.024
-22.891001 -2.3299999 0.025
-22.802 -2.3940001 0.025
-22.733 -2.4590001 0.026000001
-22.656 -2.523 0.026000001
-22.577999 -2.586 0.027000001
-22.506001 -2.6140001 0.027000001
-22.417 -2.675 0.028000001
-22.358 -2.7390001 0.028000001
-22.280001 -2.8010001 0.028999999
-22.194 -2.8610001 0.029999999
-22.121 -2.9219999 0.029999999
-22.033001 -2.9809999 0.030999999
-21.983 -3.0090001 0.030999999
-21.888 -3.0669999 0.032000002
-21.823 -3.1270001 0.032000002
-21.740999 -3.1860001 0.033
-21.66 -3.243 0.033
-21.579 -3.3010001 0.034000002
-21.525 -3.362 0.034000002
-21.436001 -3.382 0.035
-21.370001 -3.441 0.035
-21.296 -3.4979999 0.035999998
-21.216 -3.553 0.035999998
-21.142 -3.609 0.037
-21.083 -3.6670001 0.037
-20.999001 -3.721 0.037999999
-20.934 -3.743 0.037999999
-20.849001 -3.796 0.039000001
-20.766001 -3.848 0.039000001
-20.722 -3.908 0.039999999
-20.767 -3.984 0.039000001
-20.844999 -4.066 0.039000001
-20.83 -4.131 0.039000001
-20.764999 -4.152 0.039000001
-20.695 -4.2059999 0.039000001
-20.603001 -4.2550001 0.039999999
-20.548 -4.3109999 0.039999999
-20.48 -4.3639998 0.041000001
-20.393999 -4.4130001 0.041000001
-20.313 -4.4619999 0.041999999
-20.25 -4.4819999 0.041999999
-20.171 -4.5310001 0.043000001
-20.104 -4.5819998 0.043000001
-20.011999 -4.6279998 0.044
-19.907 -4.6700001 0.045000002
-19.521 -4.6440001 0.048
-19.438 -4.6890001 0.048
-19.389999 -4.71 0.048999999
-19.319 -4.757 0.048999999
-19.245001 -4.803 0.050000001
-19.158001 -4.8449998 0.050000001
-19.084999 -4.8909998 0.050999999
-19.009001 -4.9349999 0.050999999
-18.957001 -4.9850001 0.050999999
-18.870001 -4.994 0.052000001
-18.809999 -5.0419998 0.052000001
-18.73 -5.0840001 0.052999999
-18.662001 -5.1279998 0.052999999
-18.599001 -5.1739998 0.054000001
-18.525 -5.2160001 0.054000001
-18.469999 -5.263 0.055
-18.396999 -5.2740002 0.055
-28.017 2.5239999 -1.5369999
-27.846001 2.3759999 -1.526
-27.794001 2.2839999 -1.522
-27.711 2.1900001 -1.517
-27.636 2.096 -1.512
-27.563 2.0039999 -1.507
-27.487 1.9119999 -1.502
-27.412001 1.8200001 -1.497
-27.343 1.772 -1.492
-27.240999 1.6799999 -1.4859999
-27.174 1.59 -1.4809999
-27.093 1.5 -1.476
-27.006001 1.41 -1.47
-26.943001 1.322 -1.466
-26.875 1.234 -1.461
-26.783001 1.188 -1.456
-26.658001 1.015 -1.448
-26.608999 0.92900002 -1.444
-26.488001 0.84200001 -1.437
-26.417 0.75700003 -1.432
-26.354 0.67199999 -1.428
-26.271 0.62900001 -1.423
-26.181 0.54400003 -1.4170001
-23.327 -1.979 1.001
-26.044001 0.37799999 -1.409
-25.981001 0.296 -1.405
-25.886 0.213 -1.399
-25.815001 0.132 -1.3940001
-25.729 0.090999998 -1.3890001
-25.556 -0.07 -1.378
-25.489 -0.15000001 -1.374
-25.434999 -0.23 -1.3710001
-25.351999 -0.308 -1.3660001
-25.273001 -0.38699999 -1.3609999
-25.174 -0.46399999 -1.355
-25.08 -0.50199997 -1.349
-25.028 -0.579 -1.346
-25.021999 -0.65799999 -1.346
-25.011999 -0.736 -1.345
-24.914 -0.81199998 -1.339
-24.837 -0.88700002 -1.335
-24.745001 -0.96200001 -1.329
-24.673 -0.99800003 -1.325
-24.566 -1.0700001 -1.318
-24.405001 -1.14 -1.309
-24.298 -1.211 -1.302
-24.208 -1.283 -1.2970001
-23.969999 -1.459 -1.283
-23.893999 -1.53 -1.278
-23.820999 -1.6 -1.274
-23.742001 -1.67 -1.27
-23.673 -1.74 -1.266
-23.576 -1.807 -1.26
-23.517 -1.877 -1.257
-23.436001 -1.9069999 -1.252
-23.177 -2.1059999 -1.237
-23.1 -2.1719999 -1.233
-22.902 -2.4070001 -1.222
-22.792999 -2.4679999 -1.216
-22.775999 -2.539 -1.215
-22.635 -2.595 -1.207
-22.518999 -2.6530001 -1.2
-22.386 -2.7090001 -1.192
-22.32 -2.7360001 -1.188
-22.243999 -2.7980001 -1.184
-22.164 -2.859 -1.1799999
-22.091999 -2.9200001 -1.176
-22.017 -2.98 -1.1720001
-21.923 -3.0369999 -1.166
-21.84 -3.096 -1.1619999
-21.794001 -3.1240001 -1.159
-21.625999 -3.2390001 -1.15
-21.552 -3.2969999 -1.146
-21.483999 -3.3559999 -1.142
-21.403 -3.4119999 -1.138
-21.320999 -3.467 -1.1339999
-21.266001 -3.493 -1.13
-21.183001 -3.5469999 -1.126
-21.112 -3.6029999 -1.122
-21.032 -3.658 -1.118
-20.976999 -3.7160001 -1.115
-20.959999 -3.7809999 -1.115
-20.891001 -3.836 -1.1109999
-20.836 -3.8599999 -1.108
-20.778 -3.9170001 -1.105
-20.811001 -3.9909999 -1.108
-20.882 -4.073 -1.113
-20.657 -4.2649999 -1.102
-20.569 -4.3140001 -1.097
-20.500999 -4.3670001 -1.094
-20.448 -4.4229999 -1.091
-20.382999 -4.4759998 -1.0880001
-20.32 -4.5289998 -1.085
-20.238001 -4.5770001 -1.081
-20.138 -4.6209998 -1.075
-20.058001 -4.6360002 -1.071
-19.872999 -4.658 -1.0599999
-19.59 -4.6570001 -1.043
-19.483999 -4.6960001 -1.0369999
-19.375999 -4.7350001 -1.031
-19.280001 -4.7750001 -1.026
-18.716 -5.1059999 -0.99699998
-18.632 -5.1139998 -0.99299997
-18.566 -5.1589999 -0.98900002
-18.5 -5.2030001 -0.986
-18.42 -5.243 -0.98199999
-18.358 -5.2870002 -0.97899997
-20.937 -3.7839999 0.92900002
-18.555 -5.1020002 -1.568
-18.363001 -5.2049999 -1.553
-18.308001 -5.2519999 -1.55
-28.111 2.687 -0.19
-28.042 2.5910001 -0.189
-27.974001 2.5409999 -0.18799999
-27.886999 2.4449999 -0.18700001
-27.82 2.3510001 -0.186
-27.733999 2.256 -0.184
-27.665001 2.1630001 -0.183
-27.59 2.0699999 -0.182
-27.525 1.978 -0.18099999
-27.445 1.886 -0.18000001
-27.187 1.654 -0.176
-27.105 1.564 -0.175
-27.037001 1.475 -0.17399999
-26.958 1.386 -0.17299999
-26.898001 1.298 -0.17200001
-26.816 1.252 -0.171
-26.736 1.164 -0.17
-26.67 1.077 -0.169
-26.591 0.99000001 -0.167
-28.117001 2.7 0.63700002
-28.044001 2.6040001 0.63599998
-27.964001 2.552 0.63499999
-27.865 2.454 0.63300002
-27.785 2.359 0.63200003
-27.712 2.2650001 0.63099998
-27.621 2.171 0.62900001
-27.556 2.0780001 0.62800002
-27.597 1.994 0.62900001
-27.667999 1.956 0.63
-27.538 1.859 0.62800002
-27.973 1.801 0.634
-27.320999 1.5 0.62400001
-27.516001 1.424 0.62699997
-27.524 1.381 0.62699997
-26.702999 1.171 0.61400002
-26.649 1.085 0.61299998
-26.604 0.99900001 0.61299998
-26.525 0.91299999 0.611
-26.438 0.82700002 0.61000001
-26.357 0.78200001 0.60900003
-26.278999 0.69700003 0.60799998
-26.186001 0.61299998 0.60600001
-26.118999 0.52899998 0.60500002
-26.051001 0.44600001 0.60399997
-25.966 0.36199999 0.60299999
-25.885 0.28 0.602
-25.808001 0.23800001 0.60000002
-25.726 0.15700001 0.59899998
-25.655001 0.075999998 0.59799999
-25.541 -0.0049999999 0.59600002
-25.483 -0.085000001 0.59500003
-25.518 -0.16500001 0.59600002
-25.576 -0.24600001 0.597
-25.569 -0.28600001 0.597
-25.746 -0.36899999 0.59899998
-25.931 -0.45300001 0.602
-25.194 -0.59899998 0.59100002
-25.15 -0.67699999 0.58999997
-25.034 -0.75300002 0.58899999
-25.722 -0.81300002 0.59899998
-24.511 -0.93000001 0.58099997
-24.452 -1.005 0.57999998
-24.393 -1.08 0.579
-24.318001 -1.153 0.57800001
-24.254 -1.226 0.57700002
-24.166 -1.298 0.57599998
-24.086 -1.332 0.57499999
-24.002001 -1.403 0.57300001
-23.931999 -1.474 0.57200003
-23.855 -1.545 0.57099998
-23.774 -1.615 0.56999999
-23.725 -1.686 0.56999999
-23.547001 -1.785 0.56699997
-23.464001 -1.853 0.56599998
-23.389999 -1.9220001 0.565
-23.296 -1.988 0.56300002
-23.216 -2.0539999 0.56199998
-23.228001 -2.1289999 0.56300002
-23.291 -2.2079999 0.56400001
-23.283001 -2.2449999 0.56400001
-23.292 -2.319 0.56400001
-23.547001 -2.4189999 0.56800002
-23.541 -2.493 0.56800002
-22.886999 -2.5699999 0.55800003
-25.642 0.068999998 -0.154
-22.691999 -2.6570001 0.55500001
-22.194 -2.8110001 0.54799998
-22.132999 -2.875 0.54699999
-22.077 -2.938 0.546
-23.768999 -1.54 -1.437
-21.93 -3.0239999 0.54400003
-21.849001 -3.0829999 0.54299998
-21.775999 -3.142 0.542
-21.698 -3.201 0.54100001
-21.627001 -3.26 0.54000002
-25.493999 -0.090999998 -0.152
-21.483999 -3.3759999 0.53899997
-21.407 -3.3989999 0.537
-21.329 -3.4549999 0.53600001
-21.259001 -3.513 0.53500003
-21.187 -3.569 0.53500003
-21.112 -3.625 0.53399998
-21.042 -3.681 0.53299999
-20.962999 -3.7349999 0.53200001
-20.875 -3.753 0.52999997
-20.806 -3.809 0.52899998
-20.729 -3.862 0.528
-20.738001 -3.931 0.52899998
-20.783001 -4.007 0.52999997
-20.827 -4.0830002 0.53100002
-20.823999 -4.151 0.53100002
-20.740999 -4.1680002 0.52999997
-20.649 -4.217 0.528
-20.579 -4.2709999 0.52700001
-20.516001 -4.3249998 0.52700001
-20.415001 -4.3709998 0.52499998
-20.362 -4.4260001 0.52499998
-20.277 -4.4749999 0.52399999
-20.225 -4.4970002 0.523
-20.143 -4.5450001 0.52200001
-20.063999 -4.5939999 0.52100003
-19.969999 -4.638 0.51999998
-19.934999 -4.3969998 -1.554
-19.476999 -4.6539998 0.51200002
-19.41 -4.7020001 0.51200002
-19.351999 -4.7529998 0.51099998
-19.277 -4.7659998 0.50999999
-19.211 -4.8140001 0.509
-19.143999 -4.8610001 0.50800002
-19.07 -4.9070001 0.50700003
-18.993 -4.9499998 0.50599998
-18.912001 -4.993 0.505
-18.84 -5.0370002 0.50400001
-18.77 -5.0500002 0.50300002
-18.700001 -5.0949998 0.50300002
-18.636 -5.1399999 0.50199997
-18.559999 -5.1820002 0.50099999
-24.961 -0.59799999 -0.14399999
-18.434 -5.2719998 0.49900001
-24.868999 -0.67400002 -0.14300001
-19.879 -4.4499998 -1.55
-24.629 -0.861 -0.14
-24.549999 -0.93599999 -0.139
-24.466999 -1.0089999 -0.138
-24.41 -1.084 -0.13699999
-24.316 -1.156 -0.13600001
-24.250999 -1.229 -0.13500001
-24.153 -1.3 -0.133
-24.111 -1.336 -0.133
-24.007 -1.406 -0.132
-23.941999 -1.477 -0.131
-23.851999 -1.5470001 -0.12899999
-23.795 -1.618 -0.12899999
-21.683001 -3.095 -1.3049999
-21.393 -3.3629999 -1.288
-21.325001 -3.421 -1.284
-21.253 -3.4779999 -1.28
-21.174999 -3.5339999 -1.275
-21.108999 -3.5569999 -1.271
-21.038 -3.6129999 -1.267
-20.954 -3.6670001 -1.261
-20.900999 -3.7249999 -1.2589999
-20.885 -3.79 -1.258
-20.801001 -3.842 -1.253
-20.736 -3.898 -1.25
-20.759001 -3.97 -1.252
-20.816999 -4.0149999 -1.257
-20.855 -4.0900002 -1.26
-20.805 -4.1479998 -1.258
-20.725 -4.1999998 -1.253
-20.624001 -4.2470002 -1.247
-20.568001 -4.303 -1.244
-20.184 -4.5219998 -1.221
-20.118999 -4.5739999 -1.217
-21.648001 -3.26 -0.101
-21.551001 -3.3150001 -0.1
-19.570999 -4.612 -1.181
-19.471001 -4.6529999 -1.175
-21.35 -3.4560001 -0.097999997
-19.011 -4.7969999 -1.147
-18.82 -4.9699998 -1.137
-18.771 -5.02 -1.135
-28.131001 2.6800001 -0.88499999
-28.049999 2.5829999 -0.88200003
-27.983999 2.4890001 -0.87900001
-27.888 2.392 -0.875
-27.813 2.342 -0.87199998
-27.74 2.2479999 -0.86900002
-27.665001 2.154 -0.866
-27.601999 2.062 -0.86299998
-27.514999 1.969 -0.85900003
-27.424999 1.876 -0.85600001
-27.344999 1.784 -0.852
-27.271999 1.737 -0.84899998
-27.202 1.646 -0.847
-27.118999 1.556 -0.84299999
-27.044001 1.467 -0.83999997
-26.962 1.377 -0.83700001
-26.893 1.289 -0.83399999
-26.815001 1.201 -0.83099997
-26.747 1.114 -0.82800001
-26.667999 1.069 -0.82499999
-26.584 0.98199999 -0.82200003
-26.517 0.89600003 -0.81900001
-26.448 0.81099999 -0.81599998
-26.370001 0.72500002 -0.81300002
-26.292 0.64099997 -0.81
-26.232 0.55699998 -0.80699998
-26.136999 0.514 -0.80400002
-26.063 0.43000001 -0.801
-25.988001 0.34799999 -0.79799998
-25.919001 0.26499999 -0.79500002
-25.846001 0.183 -0.792
-25.768 0.102 -0.78899997
-25.683001 0.061000001 -0.78600001
-25.594999 -0.018999999 -0.78299999
-25.517 -0.098999999 -0.77999997
-25.441999 -0.17900001 -0.77700001
-25.378 -0.25799999 -0.77399999
-25.292999 -0.336 -0.77100003
-25.212 -0.414 -0.76800001
-25.138 -0.49200001 -0.76499999
-25.047001 -0.52999997 -0.76200002
-24.898001 -0.60500002 -0.75599998
-24.823999 -0.68099999 -0.75300002
-24.743999 -0.75599998 -0.75
-24.679001 -0.83200002 -0.74800003
-24.589001 -0.90600002 -0.745
-24.511999 -0.98000002 -0.74199998
-24.454 -1.016 -0.74000001
-24.355 -1.089 -0.736
-24.261999 -1.161 -0.73199999
-24.184 -1.233 -0.73000002
-24.106001 -1.3049999 -0.727
-24.038 -1.377 -0.72399998
-23.966 -1.449 -0.722
-23.889999 -1.482 -0.71899998
-23.809 -1.552 -0.71600002
-23.763 -1.623 -0.71399999
-23.487 -1.827 -0.704
-23.417999 -1.895 -0.70200002
-23.330999 -1.925 -0.69800001
-23.275 -1.994 -0.69700003
-23.174999 -2.059 -0.69300002
-23.105 -2.1259999 -0.69
-23.049999 -2.194 -0.68900001
-22.945999 -2.256 -0.685
-22.882999 -2.323 -0.68300003
-22.808001 -2.3510001 -0.68000001
-22.721001 -2.414 -0.67699999
-22.655001 -2.4790001 -0.67500001
-22.58 -2.543 -0.67199999
-22.504 -2.6059999 -0.66900003
-22.423 -2.668 -0.667
-22.351 -2.73 -0.66399997
-22.287001 -2.7579999 -0.662
-22.215 -2.8199999 -0.65899998
-22.148001 -2.882 -0.65700001
-22.059999 -2.941 -0.65399998
-21.993 -3.0020001 -0.65200001
-21.93 -3.0639999 -0.64999998
-21.843 -3.122 -0.64700001
-21.778999 -3.1470001 -0.64399999
-21.714001 -3.2079999 -0.64200002
-21.652 -3.2679999 -0.63999999
-21.566999 -3.3239999 -0.63700002
-21.509001 -3.385 -0.63499999
-21.438999 -3.4430001 -0.63300002
-21.368999 -3.5 -0.63099998
-21.308001 -3.559 -0.62900001
-21.23 -3.5799999 -0.62599999
-21.177 -3.6400001 -0.62400001
-21.075001 -3.6900001 -0.62099999
-21.032 -3.7509999 -0.62
-20.934 -3.8010001 -0.616
-20.875999 -3.858 -0.61400002
-20.790001 -3.9100001 -0.611
-20.823 -3.95 -0.61299998
-20.855 -4.0240002 -0.61500001
-20.872 -4.0949998 -0.616
-20.865 -4.1620002 -0.616
-20.768999 -4.211 -0.61299998
-20.684 -4.2610002 -0.61000001
-20.632999 -4.3179998 -0.60900003
-20.559999 -4.336 -0.60600001
-20.483 -4.3870001 -0.60399997
-20.407 -4.4380002 -0.60100001
-20.330999 -4.4879999 -0.59899998
-20.261999 -4.54 -0.59600002
-20.184999 -4.5890002 -0.59399998
-20.094999 -4.6350002 -0.59100002
-20.018999 -4.651 -0.588
-19.621 -4.6230001 -0.57300001
-19.547001 -4.6700001 -0.57099998
-19.464001 -4.7150002 -0.56800002
-18.691999 -5.1539998 -0.54299998
-18.622 -5.197 -0.54100001
-18.563 -5.244 -0.54000002
-18.5 -5.289 -0.53799999
-18.386 -5.3179998 -0.53399998
