# .PCD v0.7 - Point Cloud Data file format
VERSION 0.7
FIELDS x y z
SIZE 4 4 4
TYPE F F F
COUNT 1 1 1
WIDTH 209
HEIGHT 1
VIEWPOINT 0 0 0 1 0 0 0
POINTS 209
DATA ascii
2.687 -31.398001 0.15800001
2.793 -31.469 0.15800001
1.7079999 -30.997 -1.552
2.4990001 -31.381001 -1.01
2.5940001 -31.327 -1.008
2.6860001 -31.245001 -1.005
2.786 -31.26 -1.006
2.8889999 -31.301001 -1.008
3.244 -31.367001 -1.012
2.7920001 -31.655001 0.69099998
2.5829999 -32.888 -1.4529999
2.5829999 -31.624001 -1.39
2.684 -31.645 -1.391
2.717 -31.448 -1.381
2.8659999 -31.992001 -1.409
2.948 -31.785999 -1.399
3.0209999 -31.499001 -1.385
3.115 -31.443001 -1.383
3.2060001 -31.356001 -1.3789999
3.2869999 -31.181 -1.3710001
3.3429999 -31.239 -1.374
3.4449999 -31.261999 -1.376
3.543 -31.250999 -1.376
3.6589999 -31.393 -1.383
3.7920001 -31.663 -1.398
3.9200001 -31.881001 -1.409
4.0510001 -32.112 -1.4220001
4.1160002 -32.220001 -1.427
2.6949999 -31.469999 -0.45699999
2.793 -31.448999 -0.45699999
2.7179999 -31.601999 0.30700001
11.971 -29.552 -1.6
2.5680001 -31.517 0.92799997
2.6659999 -31.499001 0.92799997
2.714 -31.479 0.92799997
2.813 -31.469999 0.92799997
2.9119999 -31.462999 0.92799997
5.3080001 -31.580999 -1.608
5.4089999 -31.57 -1.608
5.4569998 -31.556 -1.608
5.5580001 -31.549999 -1.608
5.6570001 -31.531 -1.608
5.7550001 -31.504999 -1.608
9.0209999 -30.686001 -1.605
2.5350001 -31.309999 -0.801
2.6289999 -31.243999 -0.79900002
2.723 -31.190001 -0.79799998
2.8269999 -31.245001 -0.80000001
2.9449999 -31.457001 -0.80699998
3.165 -31.158001 -0.79799998
2.4909999 -31.400999 -0.236
2.5910001 -31.405001 -0.236
2.688 -31.384001 -0.236
2.786 -31.370001 -0.236
2.8840001 -31.353001 -0.236
2.9530001 -31.561001 -0.23899999
3.0239999 -31.263 -0.235
2.697 -31.677999 -1.21
2.7809999 -31.496 -1.2029999
3.003 -32.848 -1.263
3.0780001 -32.532001 -1.25
3.1630001 -32.344002 -1.242
3.1619999 -31.308001 -1.196
3.2160001 -31.354 -1.198
3.375 -31.92 -1.224
3.457 -31.740999 -1.216
3.5869999 -31.997999 -1.228
3.7090001 -32.174999 -1.237
3.8150001 -32.210999 -1.239
1.2640001 -30.889999 -1.545
1.362 -30.903999 -1.546
1.462 -30.972 -1.55
1.512 -30.990999 -1.551
1.6109999 -31.016001 -1.553
2.723 -31.672001 0.528
1.809 -31.061001 -1.556
1.9069999 -31.069 -1.557
2.006 -31.079 -1.558
2.1070001 -31.125999 -1.561
2.1659999 -31.268999 -1.569
2.266 -31.291 -1.571
2.358 -31.191 -1.566
2.4579999 -31.212999 -1.567
2.5469999 -31.09 -1.561
2.6489999 -31.131001 -1.564
2.7449999 -31.105 -1.563
2.7869999 -31.021 -1.558
2.8889999 -31.072001 -1.561
2.994 -31.139999 -1.566
3.0910001 -31.118 -1.5650001
3.188 -31.103001 -1.5650001
3.286 -31.091999 -1.5650001
3.3889999 -31.128 -1.567
3.4449999 -31.194 -1.571
3.5469999 -31.214001 -1.573
3.641 -31.169001 -1.571
3.7509999 -31.257 -1.577
3.8599999 -31.334 -1.582
3.9890001 -31.566 -1.596
4.1290002 -31.872 -1.614
4.1999998 -32.023998 -1.623
4.296 -31.976999 -1.6210001
4.3899999 -31.917999 -1.619
4.4860001 -31.872 -1.617
4.585 -31.851999 -1.617
4.6859999 -31.843 -1.617
4.7800002 -31.791 -1.615
4.8249998 -31.747999 -1.613
4.9260001 -31.738001 -1.613
5.0219998 -31.698999 -1.612
5.118 -31.665001 -1.6109999
5.2119999 -31.618 -1.609
2.5190001 -31.48 1.076
2.569 -31.49 1.077
2.6670001 -31.468 1.076
2.766 -31.462999 1.077
2.8659999 -31.468 1.077
2.961 -31.417 1.076
5.8499999 -31.465 -1.607
5.9439998 -31.424999 -1.605
6.0370002 -31.375 -1.604
6.0840001 -31.351999 -1.603
6.1799998 -31.319 -1.602
6.277 -31.292999 -1.602
6.3759999 -31.277 -1.602
6.473 -31.250999 -1.602
6.5710001 -31.229 -1.601
6.6690001 -31.212 -1.602
6.7210002 -31.211 -1.602
6.823 -31.209 -1.603
6.9250002 -31.207001 -1.604
7.0219998 -31.181999 -1.604
7.1240001 -31.177 -1.605
7.2199998 -31.146 -1.605
7.3210001 -31.135 -1.605
7.3720002 -31.134001 -1.6059999
7.4699998 -31.110001 -1.6059999
7.5650001 -31.075001 -1.605
7.6620002 -31.051001 -1.605
7.7709999 -31.070999 -1.608
7.8709998 -31.058001 -1.609
7.967 -31.024 -1.608
8.0200005 -31.028999 -1.609
8.1230001 -31.025 -1.61
8.2220001 -31.007 -1.6109999
8.4549999 -31.097 -1.619
8.4980001 -30.868 -1.607
2.5420001 -31.424999 -0.043000001
2.641 -31.416 -0.043000001
2.7390001 -31.393999 -0.043000001
2.786 -31.374001 -0.041999999
2.885 -31.368999 -0.041999999
3.0050001 -31.587 -0.044
9.1190004 -30.665001 -1.6059999
9.2139997 -30.631001 -1.6059999
9.2600002 -30.608 -1.605
9.3549995 -30.577 -1.605
9.4650002 -30.594 -1.608
9.5699997 -30.591999 -1.609
9.6700001 -30.573 -1.61
9.8979998 -30.624001 -1.617
9.9040003 -30.479 -1.609
9.9879999 -30.412001 -1.607
10.076 -30.356001 -1.605
10.166 -30.309 -1.605
10.252 -30.25 -1.603
10.343 -30.207001 -1.602
10.433 -30.160999 -1.602
10.481 -30.146 -1.602
10.575 -30.110001 -1.601
10.673 -30.087 -1.602
10.767 -30.052 -1.602
10.863 -30.021999 -1.602
10.958 -29.990999 -1.602
11.058 -29.972 -1.603
11.126 -30.01 -1.607
11.294 -30.174 -1.619
11.366 -30.076 -1.615
11.415 -29.923 -1.608
11.477 -29.802999 -1.603
11.562 -29.743999 -1.601
11.652 -29.698999 -1.601
11.69 -29.66 -1.6
11.784 -29.625 -1.6
11.88 -29.594999 -1.6
8.5799999 -30.787001 -1.604
12.071 -29.533001 -1.601
12.162 -29.489 -1.601
12.263 -29.471001 -1.602
12.329 -29.5 -1.605
12.442 -29.511 -1.608
8.6269999 -30.77 -1.604
8.7220001 -30.739 -1.604
8.8199997 -30.715 -1.604
0.87300003 -30.784 -1.538
8.9189997 -30.697001 -1.604
0.96899998 -30.778999 -1.538
2.635 -31.371 -0.616
2.7379999 -31.405001 -0.61699998
2.823 -31.249001 -0.61299998
2.8840001 -31.374001 -0.61699998
1.067 -30.818001 -1.541
1.166 -30.860001 -1.543
2.4809999 -31.479 1.277
2.5810001 -31.481001 1.277
2.6789999 -31.466 1.277
2.777 -31.452 1.277
2.8759999 -31.437 1.277
2.9719999 -31.4 1.276
