# .PCD v0.7 - Point Cloud Data file format
VERSION 0.7
FIELDS x y z
SIZE 4 4 4
TYPE F F F
COUNT 1 1 1
WIDTH 111
HEIGHT 1
VIEWPOINT 0 0 0 1 0 0 0
POINTS 111
DATA ascii
20.389 -38.477001 1.682
20.530001 -38.450001 1.683
20.669001 -38.419998 1.684
20.818001 -38.405998 1.686
20.966 -38.390999 1.688
21.110001 -38.367001 1.6900001
21.253 -38.341 1.691
21.339001 -38.355 1.693
21.472 -38.310001 1.694
21.618 -38.287998 1.696
21.761 -38.259998 1.697
21.902 -38.228001 1.699
22.039 -38.188 1.7
22.183001 -38.16 1.702
22.267 -38.167 1.7029999
22.408001 -38.132999 1.705
22.552999 -38.105 1.706
22.694 -38.07 1.7079999
22.844 -38.048 1.71
22.983 -38.008999 1.711
23.129 -37.980999 1.7130001
23.222 -37.999001 1.715
23.360001 -37.956001 1.716
23.499001 -37.915001 1.717
23.576 -37.772999 1.715
21.427999 -38.284 0.875
21.576 -38.264999 0.87599999
21.715 -38.23 0.87699997
21.804001 -38.245998 0.87699997
21.945999 -38.216 0.87800002
22.091999 -38.192001 0.87900001
22.233999 -38.16 0.88
22.368999 -38.118 0.88
22.518999 -38.097 0.88099998
22.66 -38.062 0.88200003
22.747999 -38.075001 0.88200003
22.891001 -38.042 0.88300002
23.033001 -38.007999 0.884
23.176001 -37.973 0.884
23.32 -37.941002 0.88499999
23.469999 -37.917 0.88599998
23.611 -37.877998 0.88700002
23.698999 -37.887001 0.88800001
20.5 -38.439999 1.201
20.646999 -38.424999 1.202
20.877001 -38.416 1.204
21.025 -38.402 1.205
21.169001 -38.376999 1.207
21.368999 -38.453999 1.21
21.459 -38.331001 1.209
21.601 -38.300999 1.21
21.674999 -38.292 1.21
21.816 -38.259998 1.211
21.959 -38.230999 1.212
22.094 -38.188 1.2130001
22.228001 -38.141998 1.214
22.365999 -38.105 1.215
22.524 -38.098 1.216
22.603001 -38.096001 1.217
22.754 -38.077999 1.219
22.899 -38.047001 1.22
23.055 -38.035999 1.221
23.184999 -37.980999 1.222
23.33 -37.949001 1.223
23.474001 -37.916 1.224
23.565001 -37.93 1.225
21.370001 -38.335999 0.65100002
21.516001 -38.313999 0.65100002
21.657 -38.282001 0.65200001
21.805 -38.263 0.65200001
21.945 -38.229 0.653
22.082001 -38.188999 0.653
22.247 -38.196999 0.65399998
22.316 -38.178001 0.65399998
22.471001 -38.166 0.65499997
22.601 -38.112 0.65499997
22.761999 -38.112 0.65600002
22.892 -38.056999 0.65600002
23.042 -38.035 0.65700001
23.188999 -38.007999 0.65700001
23.261999 -37.992001 0.65700001
23.402 -37.952999 0.65799999
23.559 -37.939999 0.65799999
23.656 -37.830002 0.65799999
23.839001 -37.856998 0.65899998
20.400999 -38.431 1.404
20.493999 -38.459999 1.406
20.629999 -38.424 1.4069999
20.775 -38.404999 1.408
20.927 -38.395 1.41
21.065001 -38.362999 1.411
21.228001 -38.373001 1.414
21.368 -38.341 1.415
21.441 -38.331001 1.415
21.589001 -38.312 1.4170001
21.725 -38.271999 1.418
21.868999 -38.244999 1.419
22.004999 -38.203999 1.42
22.149 -38.175999 1.421
22.289 -38.140999 1.4220001
22.377001 -38.153999 1.424
22.514999 -38.113998 1.425
22.658001 -38.083 1.426
22.806 -38.060001 1.428
22.948999 -38.026001 1.429
23.087999 -37.986 1.4299999
23.238001 -37.964001 1.432
23.323999 -37.970001 1.433
23.462 -37.926998 1.434
23.584 -37.859001 1.434
23.747999 -37.855 1.437
