# .PCD v0.7 - Point Cloud Data file format
VERSION 0.7
FIELDS x y z
SIZE 4 4 4
TYPE F F F
COUNT 1 1 1
WIDTH 115
HEIGHT 1
VIEWPOINT 0 0 0 1 0 0 0
POINTS 115
DATA ascii
26.246 -38.460999 -0.161
26.319 -38.308998 -0.161
26.336 -38.076 -0.15899999
26.611 -38.216999 -0.161
26.827999 -38.271999 -0.163
26.854 -38.054001 -0.161
26.777 -37.692001 -0.15899999
26.726 -37.494999 -0.15700001
26.745001 -37.273998 -0.156
26.745001 -37.028 -0.154
26.818001 -36.883999 -0.154
26.955999 -36.830002 -0.154
26.969999 -36.606998 -0.153
27.049999 -36.474998 -0.152
27.098 -36.419998 -0.152
27.143 -36.242001 -0.15099999
27.181 -37.382999 1.772
27.073 -37.111 1.762
27.007999 -36.778999 1.752
27.018999 -36.553001 1.7460001
27.094 -36.415001 1.744
27.098 -36.181999 1.738
26.361 -40.611 0.131
26.672001 -40.769001 0.949
26.759001 -40.623001 0.94800001
26.893999 -40.549999 0.94800001
26.658001 -39.959999 0.132
26.794001 -39.890999 0.132
26.974001 -39.888 0.132
26.848 -39.568001 0.132
26.834 -39.282001 0.133
26.950001 -39.186001 0.133
26.955 -38.931999 0.133
26.997 -38.731998 0.133
27.104 -38.625999 0.133
26.976 -38.188 0.134
26.811001 -37.828999 0.13500001
26.874001 -37.666 0.13500001
26.753 -37.249001 0.13500001
27.070999 -37.403999 0.91000003
27.035999 -37.108002 0.90600002
26.972 -36.778 0.90200001
27.018999 -36.639 0.13600001
27.049 -36.560001 0.13600001
27.146999 -36.412998 0.89899999
27.205 -36.251999 0.89700001
26.539 -40.327999 0.132
27.004999 -40.439999 0.94700003
27.164 -40.403999 0.94800001
27.313 -40.351002 0.949
26.070999 -40.875 0.36000001
26.138 -40.698002 0.359
26.214001 -40.675999 0.359
26.368999 -40.634998 0.36000001
26.49 -40.542 0.359
26.421 -40.159 0.35800001
26.547001 -40.076 0.35800001
26.653999 -39.964001 0.35800001
26.74 -39.821999 0.35800001
26.829 -39.82 0.35800001
26.910999 -39.671001 0.35800001
26.780001 -39.213001 0.35600001
26.875 -39.087002 0.35600001
26.868999 -38.817001 0.35600001
26.908001 -38.612 0.35499999
26.923 -38.376999 0.35499999
26.716999 -37.955002 0.35299999
26.700001 -37.68 0.352
26.656 -37.368 0.35100001
26.559 -36.985001 0.34999999
26.618999 -36.823002 0.34999999
26.886 -36.948002 0.35100001
26.812 -36.604 0.34999999
26.815001 -36.487 0.34999999
26.950001 -36.43 0.34999999
27.065001 -36.347 0.34999999
27.221001 -37.601002 1.266
27.139999 -37.242001 1.258
27.106001 -36.950001 1.252
27.046 -36.626999 1.245
27.069 -36.537998 1.244
27.169001 -36.432999 1.243
27.222 -36.265999 1.2410001
26.768 -37.023998 0.13600001
26.985001 -37.077999 0.13500001
27.004 -36.861 0.13600001
26.985001 -36.553001 0.89899999
27.097 -36.465 0.89899999
27.142 -36.445999 0.13600001
26.233 -40.939999 0.699
26.202999 -40.612 0.69599998
26.285999 -40.460999 0.69499999
26.518 -40.537998 0.69700003
26.66 -40.477001 0.69700003
26.854 -40.493999 0.69800001
26.898001 -40.285 0.69700003
26.888 -40.132999 0.69499999
27.048 -40.099998 0.69599998
27.219 -40.081001 0.69700003
27.318001 -39.955002 0.69599998
27.441999 -39.868 0.69599998
26.709999 -38.546001 0.68099999
27.063 -37.401001 0.67400002
27.017 -37.091 0.671
26.898001 -36.806999 0.66799998
26.919001 -36.592999 0.66600001
27.016001 -36.484001 0.66600001
27.132 -36.403 0.66600001
27.226 -36.290001 0.66600001
27.117001 -37.363998 1.477
27.056 -37.035 1.469
26.93 -36.741001 1.46
26.978001 -36.563999 1.457
26.982 -36.330002 1.452
27.191 -36.373001 1.456
