# .PCD v0.7 - Point Cloud Data file format
VERSION 0.7
FIELDS x y z
SIZE 4 4 4
TYPE F F F
COUNT 1 1 1
WIDTH 314
HEIGHT 1
VIEWPOINT 0 0 0 1 0 0 0
POINTS 314
DATA ascii
25.646 -27.332001 1.239
25.292999 -26.871 1.223
25.323999 -26.735001 1.22
25.348 -27.256001 0.77399999
24.903999 -25.961 1.197
24.865 -25.757999 1.192
24.841999 -25.573 1.188
24.815001 -25.385 1.184
24.743 -25.232 1.1799999
25.511999 -27.26 0.77600002
24.677 -24.85 1.171
24.636999 -24.653 1.166
24.629 -24.490999 1.163
24.704 -24.412001 1.163
24.917 -26.139 1.201
24.954 -26.164 0.75800002
24.759001 -25.076 0.74400002
24.922001 -26.048 0.75599998
24.179001 -28.091999 0.149
24.877001 -25.837999 0.75300002
24.837 -25.635 0.75099999
23.823999 -29.235001 -0.090999998
23.892 -29.129999 -0.090999998
23.943001 -29.006001 -0.090999998
24.812 -25.448 0.74800003
23.931 -28.622999 -0.088
23.915001 -28.422001 -0.086999997
23.864 -28.271 -0.086000003
23.757999 -27.966 -0.082999997
23.899 -27.954 -0.083999999
23.839001 -27.707001 -0.082000002
24.052999 -27.778999 -0.083999999
23.851 -27.371 -0.079999998
23.945999 -27.306999 -0.079999998
24.132999 -27.433001 -0.082000002
24.198999 -27.334 -0.082000002
24.547001 -27.552 -0.085000001
24.421 -27.238001 -0.082000002
24.487 -27.139 -0.082000002
24.127001 -27.854 0.149
24.610001 -26.933001 -0.082000002
24.792 -27.048 -0.082999997
24.934999 -27.033001 -0.083999999
24.993999 -26.927 -0.083999999
25.041 -26.806999 -0.082999997
25.018999 -26.615999 -0.082000002
25.040001 -26.469999 -0.081
24.966999 -26.228001 -0.079999998
24.912001 -26.087 -0.078000002
24.886999 -25.898001 -0.077
24.854 -25.701 -0.075999998
24.819 -25.504 -0.075000003
24.791 -25.316 -0.072999999
24.77 -25.135 -0.071999997
24.732 -24.938999 -0.071000002
24.669001 -24.798 -0.07
24.613001 -24.586 -0.068000004
24.615999 -24.436001 -0.068000004
24.753 -24.417 -0.068000004
24.861 -24.370001 -0.068999998
24.684 -24.653 0.152
24.851999 -24.058001 -0.067000002
24.777 -23.909 -0.066
24.732 -25.555 0.31900001
25.500999 -27.268 0.58399999
24.084999 -27.631001 0.15000001
24.627001 -24.552999 0.73699999
25.861 -31.542999 1.5880001
25.825001 -31.298 1.581
25.827999 -31.202 1.579
25.896999 -31.086 1.577
25.891001 -30.882 1.572
25.846001 -30.632 1.564
25.808001 -30.392 1.557
25.757999 -30.141001 1.55
25.740999 -29.931 1.544
25.785999 -29.888 1.544
25.877001 -29.804001 1.544
25.832001 -29.563999 1.5369999
25.799 -29.34 1.53
25.724001 -29.070999 1.522
25.447001 -28.577 1.503
25.429001 -28.375999 1.498
25.354 -28.204 1.492
25.315001 -27.983 1.485
25.285999 -27.775 1.479
25.243999 -27.556 1.473
25.259001 -27.398001 1.469
25.357 -27.332001 1.47
25.629 -27.451 1.479
25.58 -27.313 1.475
25.354 -26.902 1.459
25.351999 -26.731001 1.455
24.943001 -26.136 1.431
24.957001 -25.986 1.427
24.922001 -25.787001 1.4220001
24.799999 -24.292 0.31600001
23.921 -28.136999 0.32300001
24.912001 -26.987 0.32300001
25.84 -31.65 0.829
25.784 -31.379 0.82599998
25.798 -31.195999 0.824
25.854 -31.063999 0.82300001
25.905001 -30.927 0.82099998
25.844999 -30.659 0.81800002
25.775999 -30.479 0.815
25.719999 -30.219999 0.81099999
25.684999 -29.987 0.80800003
25.76 -29.885 0.80800003
25.879 -29.833 0.80800003
25.848 -29.608 0.80599999
25.813 -29.381001 0.80299997
25.729 -29.193001 0.80000001
25.399 -28.636 0.79000002
25.396999 -28.452999 0.78799999
25.329 -28.198 0.78399998
25.325001 -28.014999 0.78200001
25.287001 -27.797001 0.77899998
25.254999 -27.587 0.77700001
25.209 -27.450001 0.77499998
25.295 -27.371 0.77499998
25.158001 -27.093 0.149
25.167999 -26.934 0.149
25.143999 -26.74 0.15000001
25.118999 -26.546 0.15000001
25.0 -26.337 0.15000001
24.973 -26.143999 0.15000001
24.948 -25.954 0.15099999
24.917 -25.759001 0.15099999
24.896 -25.576 0.15099999
24.863001 -25.382 0.15099999
24.684999 -24.922001 0.741
24.665001 -24.747 0.73900002
24.726999 -24.851 0.152
24.683001 -24.455 0.736
24.812 -24.429001 0.73699999
24.784 -24.444 0.153
24.903999 -24.408001 0.152
24.948999 -24.299 0.153
24.900999 -24.176001 0.153
24.806 -25.465 0.56599998
24.83 -25.190001 0.152
24.947001 -27.195999 0.32300001
24.521 -27.006001 -0.082000002
24.667999 -25.171 0.31799999
24.879 -26.782 0.322
24.854 -26.587 0.322
24.764999 -25.046 0.152
24.820999 -26.385 0.32100001
24.68 -24.475 0.55800003
24.746 -26.222 0.31999999
24.774 -24.414 0.55900002
24.552999 -24.663 0.317
24.742001 -26.052999 0.31999999
24.605 -25.028 0.317
24.798 -25.948999 0.31999999
24.84 -24.25 0.55800003
24.771999 -25.759001 0.31900001
25.709999 -31.731001 0.336
25.693001 -31.507 0.33500001
25.650999 -31.254999 0.33399999
25.709999 -31.125999 0.33399999
25.796 -31.031 0.33399999
24.205999 -29.024 0.32600001
24.705999 -25.368999 0.31799999
23.858 -28.243 0.32300001
24.996 -26.662001 -0.30700001
24.570999 -28.537001 0.32600001
24.417999 -28.18 0.324
24.351999 -28.014 0.324
24.462 -27.962999 0.324
24.416 -27.733 0.32300001
24.459999 -27.608 0.32300001
24.583 -27.572001 0.32300001
24.667999 -27.493 0.32300001
24.851999 -27.524 0.324
24.684 -27.252001 0.32300001
24.839001 -27.249001 0.32300001
25.931 -31.761999 1.142
25.851999 -31.462999 1.136
25.823 -31.226999 1.131
25.872 -31.087999 1.1289999
25.945 -30.976999 1.1289999
25.860001 -30.777 1.124
25.82 -30.534 1.119
25.774 -30.287001 1.114
25.716 -30.027 1.109
25.773001 -29.903999 1.107
25.899 -29.858999 1.109
25.903999 -29.676001 1.105
25.806999 -29.472 1.1
25.773001 -29.247 1.096
25.478001 -28.73 1.0829999
25.447001 -28.514 1.079
25.416 -28.301001 1.075
25.375999 -28.077999 1.0700001
25.351 -27.874001 1.066
25.26 -27.687 1.062
25.238001 -27.49 1.058
25.302999 -27.386999 1.058
25.436001 -27.358 1.059
25.525 -27.281 1.059
25.375 -26.782 1.049
25.233999 -26.549999 1.043
24.955999 -26.093 1.031
24.938 -25.910999 1.027
24.900999 -25.711 1.023
24.870001 -25.518 1.02
24.837 -25.323999 1.016
24.811001 -25.139 1.013
24.747 -24.997 1.0089999
24.711 -24.804001 1.006
24.657 -24.594999 1.001
24.688999 -24.473 1.0
24.796 -24.424 1.001
24.693001 -24.507999 0.153
24.764999 -27.18 0.149
24.546 -24.500999 0.31600001
24.801001 -25.422001 1.41
24.844999 -24.118999 -0.28
24.853001 -27.105 0.149
24.746 -24.031 -0.51800001
24.615999 -24.417 0.31600001
24.806 -23.93 -0.278
25.863001 -31.719 0.14300001
24.784 -25.26 0.74599999
24.711 -25.041 1.175
25.841999 -31.490999 0.14300001
24.907 -26.993 0.15000001
23.938999 -28.99 0.148
24.855 -23.985001 -0.51899999
24.221001 -29.143 0.148
24.743 -24.389999 0.31600001
23.853001 -28.518 0.149
24.9 -24.362 0.73799998
24.580999 -24.847 0.317
23.861 -28.438 0.149
23.962999 -28.846001 -0.090000004
24.775 -24.191999 0.31600001
24.242001 -28.708 0.148
24.756001 -27.256001 0.149
24.098 -28.356001 0.149
24.049999 -28.121 0.149
25.827999 -31.650999 0.62
25.790001 -31.403 0.61799997
25.784 -31.195 0.616
25.804001 -31.120001 0.616
25.856001 -30.985001 0.61500001
25.789 -30.707001 0.61199999
25.771999 -30.492001 0.611
25.716999 -30.233999 0.60799998
25.667999 -29.986 0.60600001
25.747 -29.886999 0.60600001
25.827 -29.884001 0.60600001
25.790001 -29.653999 0.60399997
25.738001 -29.407 0.602
25.587999 -29.052 0.59799999
25.386 -28.641001 0.59399998
25.355 -28.424999 0.59200001
25.337 -28.226 0.58999997
25.257 -28.048 0.58899999
25.209999 -27.820999 0.58700001
25.209 -27.643999 0.58499998
25.164 -27.422001 0.583
25.296 -27.393 0.58399999
25.403999 -27.336 0.58399999
24.145 -27.611 0.15000001
25.266001 -26.764 0.579
24.895 -26.205999 0.57200003
24.899 -26.046 0.57099998
24.868999 -25.851999 0.56999999
24.846001 -25.666 0.56800002
24.177 -27.473 0.15000001
24.733 -25.309999 0.565
24.709999 -25.128 0.56300002
24.671 -24.931 0.56199998
24.666 -24.77 0.56
24.617001 -24.566999 0.55900002
24.152 -27.271 0.15000001
24.159 -28.782 0.32499999
24.825001 -24.388 0.55900002
24.775999 -26.847 -0.30700001
24.927999 -26.927 -0.30899999
25.025 -26.862 -0.30899999
24.368 -27.341999 0.15000001
24.983 -26.482 -0.30500001
24.966 -26.297001 -0.303
24.936001 -26.101999 -0.30000001
24.705 -27.545 0.149
24.624001 -27.282 0.15000001
24.877001 -24.233 -0.068000004
25.827999 -31.552 1.329
25.771 -31.280001 1.322
25.820999 -31.141001 1.3200001
25.854 -31.082001 1.3200001
25.83 -30.855 1.314
25.792999 -30.614 1.309
25.746 -30.364 1.303
25.697001 -30.114 1.296
25.707001 -29.934 1.293
25.809999 -29.864 1.293
25.827 -29.789 1.2920001
25.782 -29.549 1.286
25.746 -29.320999 1.281
25.621 -28.993999 1.272
25.416 -28.58 1.26
25.368 -28.346001 1.2539999
25.344999 -28.141001 1.249
25.267 -27.966999 1.244
25.242001 -27.763 1.24
25.181999 -27.521999 1.234
25.232 -27.403 1.232
25.341 -27.349001 1.233
25.299 -27.132 1.228
