# .PCD v0.7 - Point Cloud Data file format
VERSION 0.7
FIELDS x y z
SIZE 4 4 4
TYPE F F F
COUNT 1 1 1
WIDTH 95
HEIGHT 1
VIEWPOINT 0 0 0 1 0 0 0
POINTS 95
DATA ascii
19.954 -19.587999 0.977
19.495001 -19.077 0.958
19.388 -18.851999 0.95200002
19.341 -18.688 0.94800001
19.448 -18.674 0.949
20.040001 -19.122999 0.97000003
20.080999 -19.042 0.96899998
19.856001 -18.709999 0.958
19.849001 -18.643999 0.95700002
19.85 -18.528999 0.95499998
20.299999 -18.83 0.96899998
20.145 -18.163 0.954
20.214001 -18.110001 0.954
19.572001 -18.761 -0.0080000004
19.594999 -18.664 -0.0070000002
19.646 -18.596001 -0.0070000002
19.778999 -18.604 -0.0080000004
19.597 -18.747999 0.62
19.627001 -18.708 0.164
19.976 -18.872 0.62599999
19.955 -18.733999 0.62400001
19.240999 -19.792999 1.143
19.378 -19.747 1.145
19.495001 -19.740999 1.147
19.486 -19.608999 1.1440001
19.438999 -19.438999 1.1390001
19.695 -19.572001 1.148
19.889 -19.641001 1.154
19.937 -19.625999 1.155
19.790001 -19.360001 1.145
19.931999 -19.377001 1.149
19.343 -18.687 1.119
19.427 -18.650999 1.12
19.702999 -18.780001 -0.505
20.041 -18.997999 1.143
20.111 -19.004999 1.145
20.030001 -18.733999 -0.50999999
19.832001 -18.507999 1.126
19.915001 -18.469 1.128
20.212999 -18.625999 1.1390001
20.174 -18.474001 1.1339999
20.225 -18.403999 1.1339999
20.247999 -18.365999 1.1339999
20.295 -18.292999 1.133
20.41 -18.282 1.136
20.468 -18.216999 1.136
19.500999 -18.952 0.62099999
19.474001 -18.806999 0.62
19.496 -18.768999 0.61900002
19.603001 -18.802 0.164
20.025999 -19.040001 0.62800002
19.671 -18.632 0.164
19.948 -18.775999 0.164
20.094999 -18.747999 0.62599999
19.995001 -18.864 0.48500001
19.441 -18.856001 0.292
19.462999 -18.759001 0.292
19.514 -18.691 0.292
19.593 -18.649 0.292
19.889999 -18.813 0.29300001
20.004999 -18.804001 0.29300001
19.698 -18.763 -0.36500001
19.709999 -18.715 -0.36500001
19.785 -18.669001 -0.36500001
19.951 -18.708 -0.368
20.084 -18.714001 -0.37099999
19.483999 -18.959999 0.82700002
19.436001 -18.855 0.82499999
19.468 -18.767 0.824
19.549999 -18.728001 0.82499999
19.976999 -18.896999 0.83499998
19.975 -18.777 0.833
19.914 -18.660999 0.82999998
20.278999 -18.011 0.82599998
20.299999 -17.916 0.82499999
19.777 -18.867001 1.133
19.733 -18.690001 -0.50400001
19.837 -18.671 -0.50599998
19.792 -18.586 1.127
20.025 -18.612 -0.50800002
19.466 -18.892 0.48100001
19.492001 -18.799 0.48100001
19.559999 -18.746 0.48100001
19.652 -18.716 0.48100001
19.976999 -18.906 0.48500001
19.627001 -18.750999 -0.66399997
19.726999 -18.788 -0.66799998
19.743999 -18.686001 -0.66600001
19.855 -18.673 -0.66799998
19.978001 -18.671 -0.671
20.287001 -18.841 -0.68199998
19.622999 -18.76 -0.175
19.65 -18.667999 -0.17399999
19.719999 -18.617001 -0.175
19.750999 -18.528999 -0.17399999
