# .PCD v0.7 - Point Cloud Data file format
VERSION 0.7
FIELDS x y z
SIZE 4 4 4
TYPE F F F
COUNT 1 1 1
WIDTH 94
HEIGHT 1
VIEWPOINT 0 0 0 1 0 0 0
POINTS 94
DATA ascii
15.05 -7.007 0.76999998
15.184 -7.0110002 0.77499998
15.18 -7.487 0.59399998
14.919 -7.3010001 0.58700001
15.12 -7.1430001 -1.237
15.26 -6.7859998 0.77399999
15.02 -7.2880001 -1.4400001
15.023 -7.2309999 -1.437
15.283 -7.2969999 -1.4630001
15.059 -7.1329999 -1.436
15.057 -7.2290001 -1.235
15.11 -7.2150002 -0.833
15.107 -7.0139999 0.588
15.03 -7.2199998 -0.329
15.101 -7.1890001 0.37599999
15.119 -7.2449999 -0.95099998
15.091 -7.1739998 -0.94800001
15.052 -7.2160001 -0.63499999
15.095 -7.1919999 -0.028999999
15.008 -7.52 0.67000002
14.679 -7.2969999 0.65899998
14.834 -7.316 0.66299999
14.82 -7.1360002 0.66100001
14.984 -7.1859999 0.66500002
15.113 -7.1900001 0.66799998
15.056 -7.0469999 0.66500002
15.151 -7.0339999 0.66799998
15.017 -6.914 0.66299999
15.055 -6.9029999 0.66399997
15.215 -6.9190001 0.66799998
15.07 -7.25 -0.54000002
15.051 -7.2119999 -0.53899997
15.321 -7.2820001 -0.551
15.041 -7.2670002 -0.74199998
15.053 -7.2140002 -0.741
15.087 -7.1719999 -0.74199998
15.186 -7.1900001 -0.74699998
15.136 -7.2140002 0.074000001
15.088 -7.3060002 -0.33199999
15.025 -7.2589998 -1.541
15.03 -7.2030001 -1.539
15.057 -7.1589999 -1.54
15.017 -7.723 0.77999997
15.018 -7.664 0.77899998
15.028 -7.6090002 0.77899998
14.73 -7.401 0.76700002
14.759 -7.3569999 0.76700002
14.861 -7.3499999 0.76999998
14.691 -7.152 0.76200002
14.822 -7.1290002 0.76499999
15.095 -7.2020001 0.77499998
15.151 -7.3080001 -0.234
15.067 -7.2090001 -0.23100001
15.155 -7.1929998 -0.233
15.033 -6.9130001 0.76899999
15.033 -6.8559999 0.76800001
15.042 -6.803 0.76700002
15.027 -6.7399998 0.76599997
15.048 -7.256 -1.335
14.96 -7.1550002 -1.323
15.088 -7.1589999 -1.334
15.135 -7.2870002 -1.036
15.145 -7.2329998 -1.035
15.154 -7.2090001 -1.035
15.271 -7.277 -0.33700001
15.094 -7.2340002 0.46200001
15.106 -7.1820002 0.46200001
15.133 -7.2410002 0.18000001
15.134 -7.2119999 0.18000001
15.164 -7.336 -0.44499999
15.066 -7.2309999 -0.44
15.036 -7.1589999 -0.43799999
15.265 -6.7309999 0.773
15.084 -7.2610002 -0.833
15.064 -7.2259998 -1.1390001
15.128 -7.165 -0.833
15.085 -7.2979999 0.377
15.275 -7.3309999 0.37799999
15.018 -7.2379999 0.259
15.037 -7.1890001 0.259
15.047 -7.2690001 -0.94800001
15.122 -7.2950001 -0.147
15.046 -7.1999998 -0.145
15.399 -7.3099999 -0.152
14.902 -7.2350001 0.58600003
14.921 -7.1859999 0.58499998
15.106 -7.2449999 0.58999997
15.161 -7.2129998 0.59100002
15.153 -7.151 0.58999997
15.116 -7.0760002 0.588
15.081 -7.1830001 -1.235
15.127 -6.9650002 0.588
15.202 -7.171 -0.64099997
15.032 -7.152 -1.1339999
