# .PCD v0.7 - Point Cloud Data file format
VERSION 0.7
FIELDS x y z
SIZE 4 4 4
TYPE F F F
COUNT 1 1 1
WIDTH 149
HEIGHT 1
VIEWPOINT 0 0 0 1 0 0 0
POINTS 149
DATA ascii
-3.9219999 22.219999 -1.073
-3.9189999 21.995001 -1.0599999
-4.0869999 22.135 -1.0700001
-4.1570001 22.122 -1.0700001
-4.1719999 22.132999 -0.26699999
-4.046 21.955 -1.59
-4.0650001 22.141001 0.028000001
-3.813 22.023001 -0.37799999
-3.928 22.268999 -0.38499999
-4.0650001 22.228001 -0.38499999
-4.131 22.194 -0.384
-4.1960001 22.155001 -0.38299999
-4.2600002 22.114 -0.38299999
-3.289 22.101 0.82300001
-3.7420001 22.009001 0.54699999
-4.2319999 22.073 -0.266
-3.3599999 22.1 0.82300001
-3.993 22.229 0.171
-4.0599999 22.202 0.171
-4.1139998 22.107 0.17200001
-4.1859999 21.92 0.17200001
-4.2779999 22.023001 0.17200001
-3.4300001 22.094999 0.82300001
-3.677 22.01 0.433
-3.7520001 22.030001 0.433
-3.819 22.006001 0.433
-3.8870001 21.99 0.433
-3.2939999 22.091 0.54699999
-3.3629999 22.083 0.54799998
-3.4300001 22.058001 0.54699999
-3.4660001 22.059999 0.54699999
-3.536 22.049 0.54699999
-3.608 22.056 0.54799998
-3.671 22.009001 0.54699999
-3.9890001 21.959999 0.433
-3.8110001 21.995001 0.54699999
-3.8800001 21.981001 0.54699999
-3.914 21.971001 0.54699999
-3.987 21.981001 0.54799998
-4.052 21.945999 0.54699999
-4.1209998 21.934999 0.54699999
-4.1890001 21.92 0.54699999
-4.2589998 21.910999 0.54699999
-4.3060002 21.788 0.546
-4.3649998 21.903 0.54699999
-4.1389999 22.148001 0.028000001
-4.1069999 21.98 -1.446
-4.197 21.931 0.433
-4.277 22.118 0.028000001
-4.348 22.114 0.028000001
-4.3779998 22.084 0.028000001
-3.8169999 21.997999 -0.65700001
-3.924 22.197001 -0.66500002
-4.099 22.169001 -0.66500002
-4.1700001 22.166 -0.66600001
-3.96 21.997 0.433
-3.891 21.917 0.27700001
-4.0739999 22.188 -0.26800001
-4.1059999 22.167999 -0.26800001
-4.3449998 21.997999 0.17200001
-3.8699999 22.209 0.278
-3.8829999 21.92 -0.26199999
-3.9690001 21.959 0.27700001
-4.0300002 21.9 0.27700001
-4.1830001 22.148001 0.278
-3.967 21.996 -1.446
-4.3109999 22.108999 -0.26699999
-4.204 21.881001 0.27700001
-4.1300001 21.728001 -1.428
-4.0380001 21.995001 -1.446
-4.382 22.103001 -0.26699999
-3.8199999 21.959 -0.91600001
-3.9430001 22.247999 -0.93099999
-4.0650001 22.128 -0.926
-4.1389999 22.139 -0.92699999
-4.0599999 21.959 0.433
-4.079 22.204 -1.194
-4.1440001 22.163 -1.192
-4.1300001 21.952 0.433
-3.2780001 22.149 0.71799999
-3.345 22.118999 0.71799999
-3.378 22.107 0.71799999
-3.4489999 22.103001 0.71799999
-3.5179999 22.09 0.71799999
-3.585 22.066999 0.71700001
-3.6559999 22.061001 0.71799999
-3.723 22.040001 0.71700001
-3.7920001 22.028 0.71700001
-3.8269999 22.02 0.71700001
-3.8959999 22.01 0.71700001
-3.967 22.007 0.71799999
-4.0349998 21.987 0.71700001
-4.1009998 21.957001 0.71700001
-4.1729999 21.961 0.71700001
-4.2379999 21.93 0.71700001
-4.2750001 21.934999 0.71700001
-4.3439999 21.92 0.71700001
-4.1149998 21.940001 -1.59
-4.073 22.174 -0.51700002
-3.878 21.987 0.17200001
-4.2690001 21.931 0.433
-3.8740001 21.959 -0.107
-3.9460001 21.958 -0.107
-3.9849999 21.982 -0.108
-4.085 22.134001 -0.11
-4.1550002 22.121 -0.11
-4.2020001 21.993999 -0.108
-4.2940001 22.099001 -0.11
-4.3610001 22.073 -0.11
-4.4219999 22.018 -0.109
-4.277 21.886999 0.27700001
-3.855 21.964001 0.029999999
-4.3330002 21.893999 0.433
-3.927 22.17 0.028000001
-3.8670001 22.021999 -0.51099998
-3.9300001 21.978001 -0.50999999
-3.9779999 21.972 -1.59
-4.1370001 22.129999 -0.51599997
-4.1869998 22.016001 -0.51300001
-3.8139999 21.997999 -0.78899997
-3.9319999 22.264999 -0.80199999
-4.0560002 22.153999 -0.79799998
-4.1300001 22.164 -0.79900002
-3.233 22.120001 0.433
-3.3010001 22.104 0.433
-3.3699999 22.087 0.433
-3.441 22.086 0.433
-3.5079999 22.059999 0.433
-3.546 22.076 0.433
-3.612 22.047001 0.433
-3.4990001 22.082001 0.82300001
-3.5650001 22.052 0.82200003
-3.6359999 22.046 0.82300001
-3.6730001 22.054001 0.82300001
-3.7390001 22.025 0.82200003
-3.803 21.985001 0.82200003
-3.8710001 21.964001 0.82099998
-3.944 21.975 0.82200003
-4.0159998 21.98 0.82300001
-4.0819998 21.950001 0.82200003
-4.1469998 21.917 0.82200003
-4.1939998 21.976999 0.82300001
-4.257 21.931 0.82200003
-4.3309999 21.945 0.82300001
-4.1999998 22.094 0.028999999
-3.9070001 21.974001 -1.59
-3.9560001 22.003 -1.336
-4.1240001 22.141001 -1.347
-4.1599998 22.138 -1.348
