# .PCD v0.7 - Point Cloud Data file format
VERSION 0.7
FIELDS x y z
SIZE 4 4 4
TYPE F F F
COUNT 1 1 1
WIDTH 127
HEIGHT 1
VIEWPOINT 0 0 0 1 0 0 0
POINTS 127
DATA ascii
-19.485001 16.349001 -0.61000001
-19.413 16.237 -0.60600001
-19.440001 16.156 -0.60500002
-19.493999 16.098 -0.60500002
-19.542 16.034 -0.60500002
-19.620001 15.995 -0.60600001
-19.875999 16.101 -0.61400002
-19.417999 16.361 -0.15000001
-19.451 16.284 -0.15000001
-19.400999 16.191 -0.149
-19.42 16.103001 -0.148
-19.447001 16.023001 -0.148
-19.465 15.935 -0.147
-19.587999 15.933 -0.148
-19.870001 16.059 -0.153
-19.808001 15.906 -0.15099999
-19.475 16.413 -0.92900002
-19.431999 16.271999 -0.92400002
-19.448 16.181 -0.92199999
-19.514 16.132999 -0.92299998
-19.552999 16.063 -0.92199999
-19.599001 16.048 -0.92299998
-19.858 16.157 -0.935
-19.872 16.063999 -0.93300003
-19.483999 16.042999 0.46200001
-19.549999 15.994 0.46200001
-19.66 15.982 0.463
-19.486 15.487 0.45899999
-19.566999 15.452 0.45899999
-19.433001 15.15 0.456
-19.517 15.019 0.456
-18.767 17.014 -1.229
-19.035999 17.15 -1.2460001
-19.097 16.722 -1.232
-19.184999 16.693001 -1.235
-19.333 16.715 -1.242
-19.493 15.964 -1.222
-19.629 15.973 -1.228
-19.711 15.936 -1.23
-18.617001 15.901 0.88099998
-19.412001 16.343 0.0060000001
-19.355 16.219999 0.903
-19.405001 16.129 0.0070000002
-19.066 15.774 0.889
-19.474001 15.981 0.0070000002
-19.261999 15.784 0.89300001
-19.627001 15.901 0.0070000002
-19.649 15.867 0.0070000002
-19.455999 15.538 0.89300001
-19.472 15.451 0.89200002
-19.469999 15.35 0.88999999
-19.546 15.36 0.89200002
-19.466 16.403 -0.45899999
-19.466999 16.299999 -0.45699999
-19.459999 16.190001 -0.45500001
-19.504 16.124001 -0.45500001
-19.563 16.069 -0.45500001
-19.618999 16.011999 -0.456
-19.690001 15.967 -0.456
-19.757999 15.971 -0.458
-19.464001 16.298 0.167
-19.429001 16.165001 0.167
-19.468 16.094 0.167
-19.511999 16.027 0.167
-19.544001 15.951 0.167
-19.589001 15.936 0.167
-19.646999 15.881 0.167
-19.554001 16.555 -1.0829999
-19.448 16.361 -1.073
-19.429001 16.240999 -1.068
-19.548 16.459 -0.78100002
-19.490999 16.306999 -0.77600002
-19.48 16.195 -0.773
-19.49 16.150999 -0.77200001
-19.558001 16.104 -0.773
-19.441 16.148001 -1.0650001
-19.674 15.993 -0.773
-19.759001 15.959 -0.77499998
-19.528999 16.118 -1.068
-19.643999 15.966 -0.32600001
-19.613001 15.981 -1.067
-19.239 16.062 0.58899999
-18.907 15.683 0.58099997
-19.417 16.004999 0.58999997
-19.487 15.96 0.59100002
-19.535999 15.898 0.59100002
-19.541 15.649 0.58899999
-19.544001 15.55 0.588
-19.356001 15.301 0.583
-19.336 15.187 0.58200002
-19.455999 15.183 0.583
-19.488001 15.109 0.583
-19.469 16.443001 0.0049999999
-19.393999 16.224001 0.0070000002
-19.489 16.408001 -0.329
-19.466999 16.285 -0.32699999
-19.448999 16.166 -0.32499999
-19.473 16.134001 -0.32499999
-19.506001 16.059 -0.32499999
-19.558001 15.999 -0.32499999
-19.597 16.07 -1.069
-19.636999 15.858 -0.324
-19.587 15.908 -1.063
-19.417 16.037001 0.0070000002
-19.415001 15.96 0.89899999
-19.41 16.329 0.287
-19.351 16.174999 0.28600001
-19.367001 16.084999 0.28600001
-19.408001 16.016001 0.28600001
-19.410999 15.968 0.28600001
-19.507999 15.945 0.28600001
-19.667999 15.973 0.287
-19.334 15.154 0.28400001
-19.433001 14.938 0.28400001
-19.617001 14.982 0.285
-19.518 15.914 0.0070000002
-19.615999 16.049 -0.773
-18.700001 16.298 0.773
-18.698 16.194 0.77200001
-19.063999 16.406 0.78100002
-18.981001 15.873 0.77200001
-19.393999 16.115 0.78299999
-19.473 15.975 0.78200001
-19.639 15.652 0.77999997
-19.667999 15.574 0.77999997
-19.806 15.583 0.78200001
-19.863001 15.526 0.78200001
