# .PCD v0.7 - Point Cloud Data file format
VERSION 0.7
FIELDS x y z
SIZE 4 4 4
TYPE F F F
COUNT 1 1 1
WIDTH 348
HEIGHT 1
VIEWPOINT 0 0 0 1 0 0 0
POINTS 348
DATA ascii
27.325001 5.1300001 -1.033
27.403 5.2340002 -1.0369999
27.313999 5.3060002 -1.034
27.362 5.4039998 -1.0369999
27.441 5.5089998 -1.041
27.492001 5.6090002 -1.044
27.514999 5.704 -1.046
27.584 5.7639999 -1.05
27.625 5.8629999 -1.052
27.657 5.96 -1.0549999
27.707001 6.0619998 -1.058
27.743999 6.1620002 -1.0599999
27.555 5.257 1.158
27.686001 5.3720002 1.163
27.528 5.4310002 1.158
27.577 5.5310001 1.16
27.610001 5.5819998 1.1619999
27.643 5.6799998 1.163
27.688999 5.7800002 1.166
27.739 5.882 1.168
27.771999 5.98 1.17
27.794001 6.0760002 1.171
27.847 6.1789999 1.174
27.888 6.2340002 1.175
28.902 6.8449998 1.2130001
28.917 6.9439998 1.215
28.973 7.0539999 1.217
29.025999 7.164 1.22
29.093 7.2290001 1.223
29.128 7.335 1.225
28.797001 7.3470001 1.214
28.702 7.4190001 1.212
28.674999 7.5079999 1.211
28.558001 7.5739999 1.2079999
28.544001 7.6659999 1.209
28.591999 7.7270002 1.211
28.652 7.8400002 1.214
28.697001 7.9489999 1.216
28.75 8.0620003 1.219
28.778999 8.1669998 1.221
28.847 8.2849998 1.224
27.451 5.6440001 -1.382
27.499001 5.744 -1.385
27.301001 5.1420002 -0.86699998
27.367001 5.244 -0.87
27.329 5.3260002 -0.86900002
27.336 5.4159999 -0.87
27.426001 5.5240002 -0.875
27.469999 5.5780001 -0.87699997
27.511 5.6760001 -0.87900001
27.568001 5.7779999 -0.88200003
27.601999 5.8759999 -0.884
27.646 5.9759998 -0.88599998
27.697001 6.079 -0.889
27.743 6.1799998 -0.89200002
27.77 6.2319999 -0.89300001
27.395 5.1149998 -0.68800002
27.483 5.2199998 -0.69099998
27.468 5.3070002 -0.69099998
27.34 5.3720002 -0.68699998
27.507 5.494 -0.69300002
27.547001 5.5469999 -0.69499999
27.587999 5.6459999 -0.69700003
27.631001 5.7449999 -0.699
27.674 5.8439999 -0.70099998
27.718 5.9450002 -0.70300001
27.775 6.0479999 -0.70499998
27.818001 6.1030002 -0.70700002
27.916 6.217 -0.71100003
28.212 6.375 -0.72100002
28.268 6.4809999 -0.72399998
27.677999 6.178 -1.22
27.454 5.1160002 -0.52399999
27.530001 5.2199998 -0.52600002
27.674 5.3829999 -0.52999997
27.561001 5.4499998 -0.528
27.608999 5.5500002 -0.52999997
27.656 5.6500001 -0.53100002
27.691 5.7480001 -0.53299999
27.723 5.8460002 -0.53399998
27.785 5.9499998 -0.53600001
27.815001 6.0019999 -0.537
27.851999 6.1020002 -0.53899997
27.893 6.2030001 -0.54000002
28.709999 6.48 -0.56300002
28.822001 6.6009998 -0.56599998
27.438 5.0760002 -0.38
27.511 5.1789999 -0.382
27.601999 5.2859998 -0.384
27.587 5.3730001 -0.384
27.517 5.4489999 -0.38299999
27.608999 5.5120001 -0.38499999
27.627001 5.6059999 -0.38600001
27.672001 5.7049999 -0.38699999
27.726 5.8070002 -0.389
27.764 5.9070001 -0.38999999
27.812 6.0079999 -0.39199999
27.848 6.1069999 -0.39300001
27.881001 6.1609998 -0.39399999
27.992001 6.277 -0.396
28.441 6.4710002 -0.40599999
28.492001 6.5770001 -0.40799999
27.424999 5.1570001 -0.186
27.511 5.263 -0.18700001
27.566999 5.3629999 -0.18799999
27.462 5.388 -0.18700001
27.527 5.4899998 -0.18799999
27.555 5.586 -0.189
27.608 5.6869998 -0.19
27.649 5.7859998 -0.19
27.691 5.8860002 -0.191
27.737 5.987 -0.192
27.774 6.0409999 -0.193
27.809999 6.1399999 -0.19400001
28.120001 6.302 -0.198
28.361 6.4499998 -0.20200001
28.395 6.5510001 -0.20299999
28.457001 6.6599998 -0.204
28.608999 6.79 -0.207
27.631001 5.302 0.84899998
27.396 5.1129999 -0.014
27.461 5.2140002 -0.014
27.533001 5.3169999 -0.015
27.495001 5.355 -0.015
27.492001 5.4439998 -0.015
27.537001 5.5430002 -0.016000001
27.58 5.6420002 -0.016000001
27.618999 5.7399998 -0.016000001
27.652 5.8379998 -0.017000001
27.712 5.941 -0.017000001
27.754999 5.9959998 -0.017999999
27.806 6.099 -0.017999999
27.858999 6.2020001 -0.018999999
28.347 6.4039998 -0.023
28.413 6.5120001 -0.024
28.438999 6.612 -0.024
28.572001 6.6900001 -0.025
28.653999 6.8049998 -0.026000001
28.674 6.9039998 -0.027000001
27.742001 5.822 0.85399997
27.274 5.1939998 -1.191
27.341999 5.2519999 -1.194
27.273001 5.3270001 -1.192
27.32 5.4260001 -1.1950001
29.101 7.2160001 0.89099997
27.424999 5.6259999 -1.202
27.462 5.723 -1.205
27.521 5.7810001 -1.2079999
27.525999 5.1739998 0.163
27.625999 5.283 0.163
27.648001 5.3769999 0.163
27.542999 5.447 0.163
27.612 5.5510001 0.163
27.665001 5.652 0.163
27.690001 5.7480001 0.163
27.742001 5.8039999 0.163
27.782 5.9039998 0.162
27.834 6.006 0.162
27.881001 6.1079998 0.162
27.891001 6.2020001 0.162
28.518999 6.4369998 0.161
28.676001 6.5669999 0.161
28.674999 6.6609998 0.161
28.702999 6.7160001 0.161
28.726999 6.816 0.161
28.747999 6.9169998 0.161
28.799999 7.0250001 0.161
28.9 7.1459999 0.16
29.141001 7.303 0.16
29.347 7.4530001 0.16
28.812 7.3649998 0.16
28.754 7.4460001 0.16
28.676001 7.5219998 0.161
28.608 7.6009998 0.161
28.584 7.6900001 0.161
28.639 7.802 0.16
28.716999 7.8720002 0.16
28.754 7.9790001 0.16
28.798 8.0889997 0.16
28.846001 8.1999998 0.16
28.929001 8.3219995 0.16
28.995001 8.3610001 0.89600003
27.372999 5.119 0.29499999
27.481001 5.184 0.29499999
27.556 5.2880001 0.29499999
27.434 5.3540001 0.29499999
27.483 5.4530001 0.29499999
27.527 5.552 0.29499999
27.559999 5.6490002 0.29499999
27.610001 5.704 0.296
27.659 5.8049998 0.296
27.705 5.9050002 0.296
27.740999 6.0040002 0.296
27.745001 6.0960002 0.296
27.908001 6.224 0.29699999
28.604 6.52 0.29899999
28.579 6.6090002 0.29899999
28.577999 6.7030001 0.29899999
28.533001 6.7870002 0.29899999
28.742001 7.0279999 0.30000001
29.063999 7.2030001 0.301
29.464001 7.3509998 0.303
28.811001 7.2849998 0.30000001
28.634001 7.336 0.30000001
28.587999 7.4200001 0.30000001
28.487 7.4889998 0.30000001
28.485001 7.585 0.30000001
28.504999 7.6859999 0.30000001
28.577 7.802 0.30000001
28.635 7.8660002 0.30000001
28.687 7.9770002 0.301
28.715 8.0819998 0.301
28.773001 8.1960001 0.301
27.318001 5.2020001 -1.518
27.344999 5.2969999 -1.52
27.27 5.3709998 -1.517
27.365999 5.4790001 -1.524
27.414 5.5339999 -1.527
27.455 5.632 -1.531
27.518999 5.7350001 -1.536
27.546 5.8309999 -1.539
27.638 6.033 -1.5470001
27.679001 6.1329999 -1.551
27.714001 6.2319999 -1.554
27.517 5.184 0.49000001
27.52 5.2740002 0.49000001
27.568001 5.3730001 0.491
27.572001 5.4640002 0.491
27.586 5.5570002 0.49200001
27.622999 5.6090002 0.49200001
27.679001 5.711 0.493
27.714001 5.8099999 0.493
27.756001 5.9099998 0.49399999
27.816 6.0139999 0.495
27.863001 6.1160002 0.495
27.863001 6.2080002 0.49599999
28.795 6.559 0.50599998
28.870001 6.7670002 0.50700003
28.907 6.8709998 0.50700003
28.961 6.9809999 0.50800002
29.207001 7.1370001 0.51099998
29.056 7.1490002 0.50999999
29.117001 7.2610002 0.50999999
28.687 7.3449998 0.50599998
28.702999 7.4450002 0.50700003
28.586 7.5110002 0.50599998
28.542999 7.5949998 0.50599998
28.583 7.6539998 0.50599998
28.643999 7.7670002 0.50700003
28.697001 7.8779998 0.50800002
28.740999 7.9879999 0.509
28.789 8.099 0.509
28.856001 8.2150002 0.50999999
29.003 8.3559999 0.51200002
27.462999 5.1529999 0.63300002
27.533001 5.2550001 0.634
27.632999 5.3189998 0.63599998
27.308001 5.2579999 -1.369
27.292999 5.3439999 -1.37
27.368 5.448 -1.375
27.617001 5.677 0.63700002
27.693001 5.783 0.63800001
27.724001 5.881 0.639
27.787001 5.9390001 0.63999999
27.801001 6.0339999 0.63999999
27.639 6.0 -1.396
27.948 6.25 0.64300001
28.888 6.7930002 0.65899998
28.931 6.8990002 0.66000003
28.950001 7.0 0.66100001
28.916 7.0879998 0.66100001
29.091999 7.2280002 0.66399997
29.131001 7.335 0.66500002
28.924 7.3800001 0.662
28.726 7.3769999 0.65899998
28.687 7.4640002 0.65899998
28.575001 7.5300002 0.65700001
28.563 7.6230001 0.65700001
28.591 7.7270002 0.65799999
28.643 7.8379998 0.65899998
28.707001 7.9520001 0.66100001
28.732 8.0559998 0.662
28.795 8.1219997 0.66299999
28.854 8.2370005 0.66399997
29.139 8.4169998 0.66900003
27.257 5.1149998 -1.365
28.580999 7.7090001 0.88200003
27.318001 5.2150002 -1.37
27.535999 5.3899999 0.63499999
27.523001 5.2360001 0.84600002
27.58 5.4889998 0.63499999
27.650999 5.3959999 0.85000002
27.580999 5.4720001 0.84899998
27.599001 5.566 0.85000002
27.653999 5.6680002 0.85100001
27.687 5.7649999 0.852
27.608999 5.585 0.63599998
27.782 5.9219999 0.85500002
27.83 6.0240002 0.85699999
27.862 6.1220002 0.85799998
27.885 6.2189999 0.85900003
27.424999 5.5489998 -1.3789999
28.896999 6.7800002 0.884
28.941999 6.8870001 0.88599998
28.976999 6.9920001 0.88700002
29.044001 7.105 0.889
27.379999 5.527 -1.199
29.118999 7.3169999 0.89200002
28.732 7.3639998 0.884
28.618999 7.4310002 0.88200003
28.652 7.5349998 0.88300002
28.566 7.6090002 0.88200003
27.646999 6.0799999 -1.2180001
28.653 7.8249998 0.88499999
28.702 7.8870001 0.88599998
28.750999 7.9980001 0.88800001
28.795 8.1079998 0.88999999
28.854 8.2220001 0.89200002
27.504 5.835 -1.387
27.856001 6.1370001 0.64200002
27.493999 5.151 0.977
27.589001 5.2579999 0.98000002
27.511999 5.3330002 0.97899997
27.507 5.4219999 0.97899997
27.573999 5.5250001 0.98100001
27.597 5.6199999 0.98299998
27.646 5.7199998 0.98400003
27.702 5.777 0.986
27.738001 5.8759999 0.98799998
27.794001 5.9790001 0.99000001
27.808001 6.073 0.991
27.736 6.1490002 0.98900002
28.896 6.835 1.025
28.938 6.941 1.026
28.993999 7.0510001 1.029
29.048 7.1599998 1.031
29.087 7.2179999 1.0319999
28.795 7.3379998 1.025
28.714001 7.414 1.023
28.650999 7.494 1.022
28.576 7.5700002 1.021
28.532 7.6550002 1.02
28.615 7.7249999 1.023
28.671 7.8369999 1.025
28.718 7.947 1.027
28.749001 8.052 1.029
28.812 8.1680002 1.0319999
28.868999 8.2819996 1.034
