# .PCD v0.7 - Point Cloud Data file format
VERSION 0.7
FIELDS x y z
SIZE 4 4 4
TYPE F F F
COUNT 1 1 1
WIDTH 187
HEIGHT 1
VIEWPOINT 0 0 0 1 0 0 0
POINTS 187
DATA ascii
41.311001 32.316002 -0.52999997
41.109001 32.366001 -0.528
40.667 32.433998 -0.52399999
40.462002 32.479 -0.52200001
40.27 32.533001 -0.51999998
40.220001 32.702 -0.52100003
40.353001 32.916 -0.52399999
39.750999 32.842999 -0.51700002
39.492001 32.838001 -0.514
39.112999 32.730999 -0.509
38.887001 32.750999 -0.50700003
38.689999 32.792 -0.505
38.561001 32.786999 -0.50400001
38.377998 32.84 -0.50300002
38.207001 32.902 -0.50099999
38.094002 33.014 -0.50099999
38.146 33.269001 -0.50400001
38.195999 33.525002 -0.50700003
41.263 32.238998 -1.472
41.137001 32.243999 -1.469
40.702999 32.32 -1.459
40.504002 32.369999 -1.455
40.32 32.431 -1.452
40.307999 32.630001 -1.456
40.249001 32.792 -1.457
39.313999 32.548 -1.429
39.150002 32.619999 -1.427
38.949001 32.660999 -1.423
38.758999 32.709 -1.419
38.556 32.745998 -1.415
38.416 32.730999 -1.411
38.220001 32.771999 -1.4069999
37.792999 32.82 -1.398
37.748001 32.990002 -1.4
37.561001 33.035 -1.397
40.740002 32.389999 1.6390001
40.532001 32.432999 1.635
40.307999 32.462002 1.631
40.118999 32.518002 1.628
39.918999 32.564999 1.624
39.73 32.618999 1.6210001
39.522999 32.657001 1.617
39.360001 32.626999 1.613
39.172001 32.679001 1.61
38.959999 32.710999 1.6059999
38.780998 32.769001 1.604
41.007 32.411999 0.73500001
40.598999 32.401001 0.73199999
40.431 32.476002 0.73100001
40.202999 32.500999 0.73000002
39.997002 32.542999 0.72799999
39.806 32.596001 0.727
39.611 32.644001 0.72600001
41.27 32.344002 -0.207
41.058998 32.387001 -0.206
39.061001 32.709 0.722
40.605999 32.445999 -0.204
40.404999 32.494999 -0.20299999
40.325001 32.534 -0.20299999
40.271999 32.701 -0.20299999
40.435001 33.044998 -0.206
38.188 33.117001 0.71799999
38.230999 33.366001 0.72000003
39.234001 32.685001 -0.197
39.066002 32.754002 -0.19599999
38.900002 32.719002 -0.19499999
38.695999 32.756001 -0.19400001
38.508999 32.806 -0.193
38.330002 32.862 -0.192
38.174999 32.938 -0.192
38.144001 33.119999 -0.192
38.185001 33.366001 -0.19400001
41.039001 32.382 1.977
40.494999 32.472 1.964
40.323002 32.542 1.961
39.911999 32.626999 1.952
39.698002 32.660999 1.947
39.555 32.646 1.943
38.208 32.924999 0.71700001
38.966999 32.783001 1.931
38.777 32.832001 1.927
41.382 32.263 -1.164
41.158001 32.296001 -1.16
40.991001 32.373001 -1.1569999
40.731998 32.377998 -1.152
40.558998 32.448002 -1.15
40.366001 32.501999 -1.147
40.317001 32.672001 -1.149
40.361 32.813 -1.152
40.459 33.105 -1.159
39.205002 32.699001 -1.127
39.013 32.747002 -1.124
38.824001 32.798 -1.1210001
38.668999 32.771 -1.117
38.469002 32.808998 -1.114
38.273998 32.851002 -1.1109999
38.201 33.208 -1.115
37.77 33.356998 -1.109
41.334 32.433998 0.125
41.124001 32.478001 0.125
40.665001 32.532001 0.126
40.512001 32.514999 0.126
40.354 32.597 0.126
40.306999 32.769001 0.126
40.111 32.819 0.126
39.896999 32.853001 0.126
39.723999 32.921001 0.127
39.319 32.793999 0.127
39.173 32.777 0.127
38.949001 32.798 0.12800001
38.733002 32.824001 0.12800001
38.537998 32.868 0.12800001
38.372002 32.935001 0.12800001
38.222 33.014999 0.12800001
38.147999 33.160999 0.12800001
38.25 33.355 0.12800001
40.754002 32.418999 1.0
40.555 32.470001 0.99800003
40.362999 32.523998 0.99599999
40.223999 32.516998 0.995
40.001999 32.546001 0.99199998
39.812 32.598999 0.99000001
39.606998 32.639999 0.98799998
39.409 32.686001 0.98699999
39.194 32.716 0.98400003
38.995998 32.758999 0.98199999
38.831001 32.724998 0.98000002
38.652 32.782001 0.97899997
38.483002 32.848 0.977
38.283001 32.884998 0.97500002
38.125999 32.959 0.97399998
38.102001 33.465 0.97899997
39.445999 32.612 0.72399998
39.250999 32.659 0.72299999
38.84 32.731998 0.72000003
38.652 32.782001 0.71899998
38.481998 32.846001 0.71799999
38.292 32.891998 0.71700001
41.313999 32.377998 -0.89600003
41.194 32.389 -0.89399999
40.717999 32.43 -0.88599998
40.514 32.477001 -0.884
40.334 32.541 -0.88200003
40.305 32.727001 -0.884
40.414001 33.027 -0.889
39.800999 32.84 -0.87699997
39.465 32.771999 -0.87099999
39.16 32.727001 -0.86500001
38.959 32.768002 -0.86199999
38.766998 32.814999 -0.86000001
38.562 32.849998 -0.85699999
38.428001 32.84 -0.85500002
38.255001 32.901001 -0.85299999
38.192001 33.056 -0.85399997
38.223999 33.293999 -0.85799998
38.085999 33.384998 -0.85699999
41.356998 32.228001 0.37200001
41.169998 32.291 0.37200001
40.978001 32.348 0.37099999
40.694 32.333 0.37099999
40.556 32.327 0.37
40.356998 32.376999 0.37
40.303001 32.542 0.37
40.403999 32.834 0.37099999
40.355 33.005001 0.37099999
40.159 33.055 0.37099999
39.902 33.055 0.37
39.199001 32.577 0.36700001
38.998001 32.618 0.36700001
38.759998 32.625999 0.36700001
38.597 32.696999 0.366
38.411999 32.748001 0.366
38.273998 32.839001 0.366
38.098 32.896 0.36500001
38.077999 32.983002 0.366
37.861 33.004002 0.36500001
37.688 33.062 0.36500001
40.591999 32.516998 1.393
40.433998 32.493999 1.39
40.240002 32.547001 1.387
40.035 32.589001 1.3839999
39.838001 32.638 1.381
39.631001 32.675999 1.378
39.422001 32.712002 1.375
39.185001 32.724998 1.3710001
39.076 32.737 1.369
37.909 33.441002 -0.85500002
