# .PCD v0.7 - Point Cloud Data file format
VERSION 0.7
FIELDS x y z
SIZE 4 4 4
TYPE F F F
COUNT 1 1 1
WIDTH 128
HEIGHT 1
VIEWPOINT 0 0 0 1 0 0 0
POINTS 128
DATA ascii
1.6167309 0.63715065 -0.052802205
-1.0323627 0.54207206 0.29819778
0.64865142 0.70402652 -0.34580225
1.7186337 0.60343397 -0.050802231
1.4044888 0.46043411 -0.19080222
0.46192357 0.46487594 0.43819779
1.079476 0.67811298 -0.066802204
-1.2725514 0.70398366 0.0041977763
-0.1770568 0.71917558 -0.10180223
-0.11858194 0.4129962 0.58819777
2.0556657 0.35712808 -0.17480224
0.46201056 0.73290575 -0.20980221
-1.5356933 0.54732525 -0.14880222
2.0018265 0.51015908 -0.16980225
-1.8609407 0.68519217 -0.012802243
-1.5801792 0.68989116 -0.28080225
0.24610233 0.71135163 0.044197798
-1.2945917 0.66545761 -0.27180225
1.5385749 0.63361001 -0.68880218
-1.6387706 0.6888352 0.14919776
-1.0714893 0.68751669 -0.26280224
1.6089277 0.45921782 0.070197761
0.27461016 0.26572043 0.5901978
0.063559189 0.40465397 0.5901978
1.0702968 0.5395636 -0.19780225
1.8334709 0.64291561 -0.30580217
-0.34032837 0.10632744 0.30219778
1.963636 0.64621592 -0.30180222
-0.23655109 0.73890936 -0.23280221
1.5795521 -0.78954422 -0.65880221
1.6445742 0.62075579 -0.31380218
-0.21379241 0.60482675 -0.50280219
-0.63154781 0.57132542 -0.52180225
0.24924453 0.64679027 -0.48280221
-0.17716336 0.7127738 0.033197761
-1.6836255 0.70598251 -0.0068022013
1.5729566 0.30627668 -0.59880227
1.5475965 0.65954363 -0.053802252
-1.2809684 0.70506054 -0.70680219
-0.64338613 0.42313644 0.58319777
-1.0999498 0.73250568 -0.12880224
1.3989766 0.673576 -0.18180221
-0.70655632 0.65363979 0.1691978
-0.45882899 0.72886306 -0.10980225
0.32088643 -0.013234302 0.58819777
-0.18545681 0.63684356 0.18019778
0.19297284 0.39094171 0.59119779
1.4126966 0.59696877 0.069197774
-0.64336449 0.66836381 0.17119777
-2.0960197 0.49714142 0.40219778
1.5974462 0.67027342 -0.31280226
-1.4696916 0.71210611 -0.00080221891
2.0853665 0.22714818 -0.17880225
1.2337143 0.6355601 -0.70280224
1.3410093 0.61612427 0.068197787
1.5444206 0.71270347 -0.31280226
1.1643599 0.67295086 -0.063802242
-1.7792358 0.40455461 0.57219779
-0.70300949 0.54768014 -0.5258022
1.3969624 0.67454731 -0.69280225
-0.87497365 0.73579025 -0.25480223
-1.4405862 0.67772782 0.15319777
0.34040803 0.71852922 -0.085802197
-0.23859818 0.55025923 0.31219777
1.3024386 0.68236828 -0.58980221
0.90301883 0.68073696 -0.071802199
-1.769065 0.79034513 -0.72580224
-2.1415274 0.70969975 -0.29980224
0.29947475 0.72733247 -0.35780221
1.2736369 0.64114332 0.0671978
2.1027935 0.30761087 -0.42680222
1.1987108 0.66285133 -0.32780224
0.72544026 0.71914971 -0.20180219
-0.22581419 -0.3802532 0.29419777
-1.0976825 0.72793853 0.0091977715
0.67078298 0.65414512 -0.46480221
-1.0427173 0.68953598 -0.40980226
-0.79334933 0.66617388 0.16719776
1.3156348 0.69636202 -0.058802247
1.2311207 0.64872289 -0.5948022
0.42633587 0.71038252 -0.083802223
0.30047405 -0.094740964 0.58719778
0.94514155 0.65894997 -0.45380217
-1.4385722 0.67675674 -0.55180222
-1.3378928 0.64462274 -0.13880223
0.54714775 0.72414768 -0.20780224
1.9373173 0.25678957 -0.43580228
-0.077165604 0.32999206 0.42819777
-1.4507931 0.63697398 -0.71880227
0.39016333 0.48903129 0.43719777
0.94631529 -0.81899023 0.16719776
0.13028371 0.72546268 -0.22080225
1.6643077 0.68025047 -0.1738022
-1.4546926 0.71232581 -0.2758022
-0.33884802 0.25156447 0.42319778
1.0414499 0.72076243 -0.1918022
1.7631859 0.66189134 -0.30780226
1.8856928 0.65547913 -0.30380219
-1.3310308 0.68152654 -0.54680222
-0.0088496134 0.26778302 0.31119779
-0.77339578 0.71067053 -0.39880222
-0.0091898739 0.68842292 0.036197782
-1.7273297 0.72654712 -0.72680217
1.8725805 0.58087993 -0.04780221
2.0405626 -0.0059315562 -0.44480222
-1.0599993 0.77729356 -0.40680224
-0.27071753 0.7226088 -0.1038022
-0.7360754 0.42858431 0.58319777
-0.42038509 0.58921027 -0.51280218
0.097317055 0.31193769 0.43019778
-0.33037466 0.1506772 0.42219779
-1.5624701 0.62774283 -0.72380227
1.6494877 0.68143308 -0.57580227
1.5083287 0.2803309 -0.60280222
-1.8808535 0.62429535 -0.44580227
-0.40440688 0.71405625 -0.23980224
2.074388 -0.075844705 -0.4468022
0.52155554 0.64116454 -0.47180218
0.043565124 0.73299813 -0.22380221
-0.37277651 0.64371085 0.17619777
0.38953838 0.72364682 -0.35380226
0.14902544 0.71593565 -0.36380225
0.58700889 0.67912465 0.051197767
2.0283334 0.3385269 -0.051802218
0.28742164 0.74455798 -0.21480221
2.1392369 0.26373744 -0.31280226
-1.651473 0.72325444 -0.28180224
1.780025 -0.053138733 0.058197796
