# .PCD v0.7 - Point Cloud Data file format
VERSION 0.7
FIELDS x y z
SIZE 4 4 4
TYPE F F F
COUNT 1 1 1
WIDTH 211
HEIGHT 1
VIEWPOINT 0 0 0 1 0 0 0
POINTS 211
DATA ascii
19.296 20.208 0.84500003
19.305 20.344999 0.847
19.01 20.16 0.83899999
18.924 20.195999 0.83899999
18.915001 20.313999 0.83999997
18.712999 20.676001 0.84299999
18.691999 20.783001 0.84500003
18.598 20.809 0.84399998
18.775 21.073999 0.85100001
18.781 21.216 0.85399997
18.707001 21.266001 0.85299999
18.657 21.344 0.85399997
18.648001 21.469 0.85600001
18.584999 21.533001 0.85600001
18.503 21.575001 0.85600001
18.312 21.42 0.85000002
18.061001 21.261 0.84399998
18.309999 21.691999 0.85500002
18.205999 21.705999 0.85399997
18.0 21.737 0.85100001
17.561001 21.341999 0.838
17.466 21.294001 0.83600003
17.5 21.473 0.83899999
17.280001 21.34 0.83399999
17.219 21.402 0.83399999
17.218 21.539 0.83600003
19.511999 20.297001 0.49200001
19.047001 20.063 0.48699999
18.858999 21.145 -0.192
18.736 21.139999 -0.19
18.646999 21.173 -0.19
18.604 21.191999 -0.19
18.551001 21.264999 -0.19
18.5 21.341999 -0.19
18.667999 21.674 -0.19499999
17.177 21.296 0.95999998
18.872999 20.195 0.48699999
17.0 21.351 0.95899999
19.764999 20.813999 -0.02
16.872999 21.398001 0.95700002
16.768999 21.403 0.95599997
18.896 21.172001 -1.059
18.768 21.163 -1.054
18.674 21.190001 -1.053
18.59 21.229 -1.051
18.527 21.292 -1.052
18.478001 21.371 -1.053
18.488001 21.450001 -1.056
19.944 20.870001 -0.022
19.09 20.172001 0.48800001
18.788 21.143 -0.70099998
18.688 21.164 -0.699
18.635 21.171 -0.69800001
18.566 21.226 -0.69800001
18.51 21.297001 -0.699
18.488001 21.408001 -0.70099998
19.663 21.1 -0.021
18.923 20.336 0.972
18.493 21.399 -0.53299999
17.983 20.009001 0.94800001
17.921 20.066999 0.94800001
17.902 20.172001 0.94999999
17.812 20.198 0.949
18.49 21.099001 0.97899997
17.774 20.412001 0.95200002
17.75 20.514999 0.954
18.695999 21.674 0.995
18.400999 21.469 0.986
18.104 21.257999 0.97600001
18.347 21.68 0.98900002
18.24 21.691999 0.98699999
17.969 21.507 0.97899997
17.794001 21.434 0.97399998
17.424 21.056 0.95999998
17.363001 21.117001 0.95999998
17.351 21.238001 0.96200001
17.261 21.264 0.96100003
18.917 20.115 0.486
17.158001 21.410999 0.963
19.537001 21.038 0.49700001
19.290001 20.903999 0.495
19.403 21.159 0.49700001
18.768999 20.662001 0.48899999
19.32 21.405001 0.49900001
19.021999 21.207001 0.495
18.533001 20.792 0.48899999
18.474001 20.858 0.48899999
18.575001 21.105 0.491
18.629 21.302 0.493
18.646 21.388 0.49399999
18.459 21.309 0.49200001
18.055 20.974001 0.48699999
18.017 21.063999 0.48699999
18.108999 21.306999 0.49000001
18.274 21.639 0.493
18.163 21.645 0.493
18.080999 21.615999 0.49200001
18.788 21.139 -0.017000001
18.733999 21.146 -0.017000001
18.660999 21.197001 -0.017000001
18.608 21.271 -0.017000001
18.546 21.334999 -0.017000001
18.454 21.365 -0.017000001
18.916 21.152 -0.704
18.825001 21.138 -1.2180001
18.659 21.195 -0.38699999
18.622 21.176001 -1.212
18.549 21.226999 -1.212
18.459999 21.26 -1.21
18.990999 21.223 -0.53799999
18.427999 21.358999 -1.2130001
18.827 21.173 -0.53399998
18.764 21.17 -0.53299999
18.677 21.205 -0.53200001
18.129 20.433001 1.133
18.525999 21.014 1.156
18.676001 21.319 1.168
17.702 20.268999 1.119
17.655001 20.344 1.12
17.886999 20.743999 1.135
17.941 20.940001 1.142
17.91 21.037001 1.143
18.542 21.919001 1.1799999
18.541 21.318001 -0.53200001
18.129 21.636999 1.164
17.978001 21.594 1.159
18.045 21.813999 1.166
17.950001 21.837999 1.165
17.25 21.256001 1.135
17.202 21.333 1.136
17.033001 21.327999 1.132
16.916 21.319 1.1289999
16.84 21.499001 1.133
16.834 21.632 1.136
16.521999 21.368 1.122
18.601 21.253 -0.53200001
16.445999 21.478001 1.124
16.395 21.552 1.125
18.509001 21.554001 -0.53600001
19.926001 20.841999 0.162
19.886 20.931999 0.162
19.927999 21.108 0.161
20.091999 21.417 0.161
19.893 21.271999 0.161
19.742001 21.243 0.162
18.889 21.176001 0.163
18.785999 21.193001 0.163
18.712 21.245001 0.163
18.665001 21.326 0.163
18.601999 21.389 0.163
18.535 21.447001 0.163
19.187 20.118 0.63099998
19.101999 20.155001 0.63
19.048 20.225 0.63
18.805 20.094 0.62599999
18.768 20.18 0.62699997
18.694 20.292 0.62699997
18.615 20.334 0.62699997
19.403 21.327 0.64600003
18.878 20.882 0.63599998
18.693001 20.809 0.63300002
18.808001 21.069 0.63700002
18.753 21.142 0.63800001
18.784 21.243 0.639
18.705 21.288 0.639
18.628 21.334999 0.639
18.194 20.972 0.63
18.476999 21.433001 0.63800001
18.493 21.587999 0.63999999
17.884001 21.011999 0.62699997
18.368 21.785999 0.64099997
18.181999 21.702999 0.63800001
18.07 21.708 0.63700002
17.302999 21.055 0.62199998
17.337999 21.233 0.625
17.493999 21.493 0.62900001
17.028 21.056999 0.62
18.938 21.174 -0.017999999
18.867001 21.167 -0.889
18.759001 21.18 -0.88700002
18.653999 21.195 -0.884
18.565001 21.228001 -0.88300002
18.538 21.264 -0.884
18.495001 21.35 -0.88499999
18.427999 21.408001 -0.88499999
19.211 20.323 0.977
19.028999 21.208 -0.39199999
18.868 21.162001 -0.389
18.743 21.155001 -0.38800001
18.716999 21.150999 -1.215
18.594 21.254999 -0.38699999
18.580999 21.308001 -0.38800001
18.538 21.393 -0.38800001
18.565001 21.559999 -0.391
18.440001 21.509001 -1.219
19.896999 20.966999 0.29800001
19.830999 21.030001 0.29800001
19.820999 21.086 0.29800001
19.589001 20.971001 0.29699999
19.525999 21.035999 0.29699999
19.441 21.076 0.29699999
19.393 21.291 0.29800001
18.419001 20.416 0.29300001
18.872 21.049999 0.296
18.778999 21.079 0.296
18.716999 21.143 0.296
18.656 21.207001 0.296
18.586 21.263 0.296
18.517 21.318001 0.296
18.33 21.808001 1.1720001
17.941999 21.528999 0.29499999
