# .PCD v0.7 - Point Cloud Data file format
VERSION 0.7
FIELDS x y z
SIZE 4 4 4
TYPE F F F
COUNT 1 1 1
WIDTH 227
HEIGHT 1
VIEWPOINT 0 0 0 1 0 0 0
POINTS 227
DATA ascii
23.073999 -37.620998 -0.142
23.257999 -37.654999 -0.14300001
23.414 -37.643002 -0.14399999
23.105 -37.015999 -0.138
23.639 -37.609001 -0.14399999
23.433001 -36.512001 -0.13600001
23.556999 -36.452 -0.13600001
23.493 -36.104 -0.134
22.381001 -36.485001 -1.166
21.757 -40.046001 0.90100002
20.952 -38.040001 0.139
21.058001 -37.952 0.139
22.496 -36.414001 -1.166
21.684999 -41.030998 -1.006
21.594999 -40.550999 -0.99299997
21.569 -40.198002 -0.98500001
21.521 -39.807999 -0.97500002
21.41 -39.308998 -0.963
21.094999 -38.585999 -0.94199997
20.99 -38.110001 -0.93000001
21.098 -38.021999 -0.92900002
21.27 -38.049999 -0.93199998
21.427 -38.049 -0.93400002
21.554001 -37.995998 -0.93400002
21.698999 -37.973 -0.93599999
21.785999 -37.986 -0.93699998
21.933001 -37.966 -0.93900001
22.089001 -37.959999 -0.94099998
22.247999 -37.958 -0.94300002
22.381001 -37.911999 -0.94300002
22.527 -37.886002 -0.94499999
22.688 -37.886002 -0.94700003
22.764 -37.876999 -0.94800001
22.903999 -37.84 -0.949
23.006001 -37.740002 -0.94800001
23.187 -37.77 -0.95099998
23.306 -37.696999 -0.95099998
23.438 -37.646 -0.95200002
21.632999 -41.561001 0.134
21.334 -40.674999 0.13500001
21.323999 -40.348 0.13600001
21.385 -40.157001 0.13600001
21.246 -39.597 0.13699999
21.297001 -39.542 0.13699999
21.233999 -39.131001 0.13699999
21.134001 -38.659 0.138
21.57 -39.112999 0.88700002
21.583 -38.846001 0.884
21.174999 -37.882 0.139
21.323999 -37.867001 0.139
22.933001 -37.889 0.138
23.035 -37.789001 0.138
23.188 -37.772999 0.138
23.354 -37.776001 0.138
23.408001 -37.730999 0.138
23.518999 -37.645 0.138
23.018 -36.588001 0.139
23.273001 -36.737 0.139
19.236 -41.595001 -1.563
23.455 -36.514 0.139
23.530001 -36.380001 0.139
19.622999 -41.403 -1.562
23.892 -36.560001 0.139
19.775 -41.222 -1.558
19.863001 -41.073002 -1.5549999
19.951 -40.925999 -1.551
20.061001 -40.826 -1.55
20.158001 -40.701 -1.5470001
20.237 -40.540001 -1.543
20.311001 -40.369999 -1.538
20.349001 -40.289001 -1.536
20.450001 -40.173 -1.534
20.525 -40.011002 -1.53
20.615 -39.876999 -1.526
20.671 -39.679001 -1.521
20.704 -39.438999 -1.513
20.761999 -39.25 -1.508
20.809 -39.191002 -1.507
20.837 -38.946999 -1.499
20.864 -38.706001 -1.4910001
20.872999 -38.432999 -1.482
20.926001 -38.243 -1.476
20.958 -38.016998 -1.469
21.076 -37.950001 -1.469
21.124001 -37.895 -1.4680001
21.253 -37.846001 -1.469
21.362 -37.762001 -1.4680001
21.454 -37.647999 -1.466
21.538 -37.521 -1.464
21.636999 -37.421001 -1.462
21.721001 -37.296001 -1.46
21.750999 -37.213001 -1.4579999
21.83 -37.081001 -1.455
21.917 -36.962002 -1.4529999
22.004 -36.845001 -1.45
22.084 -36.716 -1.448
22.167 -36.592999 -1.4450001
22.257999 -36.484001 -1.444
22.278 -36.388 -1.441
22.395 -36.323002 -1.441
22.483 -36.209999 -1.439
22.577999 -36.110001 -1.438
22.659 -35.987 -1.4349999
23.299999 -37.037998 0.345
19.131001 -41.712002 -1.5650001
19.365999 -41.533001 -1.563
19.481001 -41.438999 -1.561
19.733999 -41.300999 -1.561
21.452999 -41.224998 0.35299999
21.500999 -41.001999 0.35299999
21.188 -40.097 0.34999999
21.209999 -39.835999 0.34900001
21.09 -39.460999 0.34799999
21.42 -39.776001 0.34900001
21.629 -41.126999 -0.76899999
21.725 -40.997002 -0.76800001
21.424 -40.122002 -0.74900001
21.499001 -39.962002 -0.74599999
21.388 -39.456001 -0.736
21.280001 -38.964001 -0.72600001
21.141001 -38.422001 -0.71399999
21.011 -38.042 -0.70599997
21.135 -37.984001 -0.70599997
21.326 -38.047001 -0.70899999
21.459 -38.004002 -0.70999998
21.597 -37.970001 -0.71100003
21.733999 -37.931 -0.71200001
21.879999 -37.909 -0.713
21.969999 -37.929001 -0.71399999
22.108999 -37.894001 -0.71499997
22.266001 -37.888 -0.71600002
22.408001 -37.858002 -0.71700001
22.57 -37.859001 -0.71899998
22.716 -37.834 -0.72000003
22.879999 -37.835999 -0.722
22.936001 -37.794998 -0.722
23.097 -37.792999 -0.72399998
23.243999 -37.765999 -0.72500002
23.403999 -37.495998 -0.722
21.863001 -41.516998 -0.45199999
21.569 -40.650002 -0.44
20.82 -38.085999 0.34400001
21.447001 -40.007 -1.249
20.882 -37.915001 0.34299999
21.441 -39.695 -1.24
21.000999 -37.848999 0.34299999
21.393 -39.310001 -1.228
21.174 -37.881001 0.34400001
21.177999 -38.625 -1.206
21.257999 -37.890999 0.34400001
20.941999 -38.051998 -1.186
20.996 -37.973999 -0.403
21.214001 -37.979 -1.188
21.398001 -38.027 -1.192
21.518 -37.962002 -1.192
21.695 -37.994999 -1.196
21.857 -38.000999 -1.199
21.934999 -37.999001 -1.2
22.073999 -37.963001 -1.201
22.216999 -37.935001 -1.2029999
22.365 -37.912998 -1.205
22.509001 -37.886002 -1.206
22.653 -37.855999 -1.2079999
22.796 -37.826 -1.209
22.877001 -37.826 -1.211
22.657 -36.521999 0.34200001
22.306 -36.619999 -1.168
21.73 -41.389999 0.68000001
21.297001 -40.105999 0.66600001
21.318001 -39.842999 0.66399997
21.532 -39.941002 0.66600001
21.781 -40.099998 0.66799998
21.639 -39.542 0.66299999
21.495001 -38.988998 0.65700001
21.664 -41.502998 -1.294
21.591999 -41.206001 -1.285
21.535999 -40.786999 -1.272
21.472 -40.359001 -1.2589999
21.627001 -40.451 -0.43700001
21.589001 -40.077 -0.433
21.533001 -39.674999 -0.42699999
21.26 -38.881001 -0.41600001
21.091999 -38.431 -0.40900001
21.061001 -37.984001 -1.186
21.125 -37.924999 -0.403
21.292 -37.944 -0.40400001
21.431999 -37.914001 -0.405
21.580999 -37.897999 -0.40599999
21.738001 -37.896 -0.40700001
21.797001 -37.862 -0.40700001
21.955 -37.861 -0.40799999
22.118 -37.868 -0.40900001
22.278 -37.867001 -0.41
22.417999 -37.833 -0.41100001
22.563 -37.806999 -0.412
22.714001 -37.789001 -0.412
22.798 -37.793999 -0.41299999
22.940001 -37.759998 -0.414
23.083 -37.729 -0.414
23.236 -37.712002 -0.41499999
23.305 -37.558998 -0.414
23.323999 -37.327999 -0.41100001
22.629999 -36.375999 -1.1670001
21.747999 -41.831001 -0.16599999
21.386999 -40.821999 -0.15700001
21.438 -40.609001 -0.156
21.289 -40.021 -0.15099999
21.33 -39.794998 -0.15000001
21.295 -39.431999 -0.147
21.190001 -39.089001 -0.145
21.073999 -38.584999 -0.141
20.941 -38.056 -0.13699999
21.033001 -37.941002 -0.13600001
21.128 -37.831001 -0.13600001
21.333 -37.917999 -0.13699999
21.485001 -37.91 -0.138
21.556999 -37.896999 -0.138
21.695 -37.863998 -0.138
21.849001 -37.855999 -0.139
22.018 -37.874001 -0.139
22.145 -37.818001 -0.14
22.308001 -37.821999 -0.14
22.465 -37.818001 -0.141
22.507999 -37.755001 -0.141
22.65 -37.723 -0.141
22.761 -37.639999 -0.141
22.952999 -37.689999 -0.142
