# .PCD v0.7 - Point Cloud Data file format
VERSION 0.7
FIELDS x y z
SIZE 4 4 4
TYPE F F F
COUNT 1 1 1
WIDTH 307
HEIGHT 1
VIEWPOINT 0 0 0 1 0 0 0
POINTS 307
DATA ascii
1.79 -24.915001 -1.6390001
-1.099 -26.653 -1.447
1.623 -24.768999 -1.628
0.85299999 -25.672001 -1.5650001
-2.4030001 -24.297001 -0.13699999
-2.3440001 -24.492001 -0.139
-2.217 -23.532 -1.133
-2.266 -24.481001 -0.139
-0.90399998 -23.604 -1.539
-2.2260001 -24.475 -0.139
-2.3429999 -24.563999 -0.74699998
1.7079999 -24.865 -1.635
-2.4419999 -24.431999 -0.58200002
0.935 -25.707001 -1.568
0.086000003 -25.407 -1.546
1.099 -24.408001 -1.599
0.16599999 -25.414 -1.546
-2.2920001 -22.966 -0.95499998
-2.279 -23.208 -0.96700001
-2.2249999 -23.422001 -0.97799999
-2.174 -23.674 -0.99000001
-2.1199999 -23.917 -1.002
-2.062 -24.125 -1.012
-2.0120001 -24.441999 -1.028
-1.9529999 -24.684999 -1.04
-1.9349999 -24.951 -1.053
-1.877 -25.236 -1.067
-1.817 -25.52 -1.081
-1.7539999 -25.789 -1.094
-1.688 -26.024 -1.1059999
-1.62 -26.25 -1.117
-1.55 -26.474001 -1.128
-1.525 -26.77 -1.143
-1.421 -26.396 -1.124
-1.331 -26.257999 -1.117
-1.248 -26.257999 -1.1160001
-1.187 -26.750999 -1.141
-1.097 -26.625 -1.1339999
-2.4170001 -24.554001 -0.31200001
-2.3399999 -24.556999 -0.31200001
-2.2609999 -24.549 -0.31200001
-2.1819999 -24.538 -0.31099999
-2.141 -24.517 -0.31099999
-2.062 -24.493999 -0.31
-1.99 -24.568001 -0.31200001
-1.932 -24.815001 -0.317
-1.954 -26.139 -0.345
-1.8839999 -26.313 -0.34799999
-1.7970001 -26.250999 -0.347
-1.766 -26.413 -0.34999999
-1.676 -26.305 -0.34799999
-1.594 -26.322001 -0.34799999
-1.515 -26.381001 -0.34900001
-1.4400001 -26.537001 -0.352
-1.402 -27.414 -0.37
-1.33 -27.705999 -0.377
-2.3699999 -23.219999 -0.83499998
-1.99 -24.417 -0.88599998
-2.184 -24.525999 -0.745
-1.955 -24.941 -0.90899998
-0.34999999 -25.239 -1.535
-2.381 -27.851999 0.29499999
-2.2679999 -27.548 0.294
-2.217 -27.459999 0.294
-2.1340001 -27.509001 0.294
-2.0510001 -27.559 0.294
-1.971 -27.649 0.294
-1.883 -27.646999 0.294
-1.799 -27.691 0.294
-1.837 -25.493 -0.93300003
1.498 -24.636999 -1.617
-2.233 -23.327999 -0.83899999
1.059 -25.774 -1.573
1.142 -25.82 -1.576
0.67299998 -24.284 -1.589
1.258 -24.502001 -1.607
1.225 -25.855 -1.579
-0.27399999 -25.511 -1.553
-2.099 -24.482 0.012
1.307 -25.872999 -1.58
1.4170001 -24.579 -1.613
1.391 -25.903999 -1.5829999
-2.1719999 -23.464001 -0.84500003
1.474 -25.93 -1.585
1.558 -25.966999 -1.5880001
1.58 -24.702999 -1.623
-0.85600001 -24.943001 -1.515
0.75 -24.306999 -1.591
1.602 -26.016001 -1.591
-0.193 -25.388 -1.545
1.686 -26.049 -1.594
1.772 -26.111 -1.599
-1.607 -26.290001 -1.286
-2.279 -22.815001 -1.488
-2.1159999 -23.672001 -0.85299999
0.82800001 -24.330999 -1.5930001
-2.119 -23.035 -1.503
-0.86699998 -23.617001 -1.54
-2.062 -23.91 -0.86400002
2.2539999 -26.441999 -1.624
-1.376 -23.407 -1.526
0.90499997 -24.356001 -1.595
-1.803 -23.195999 -1.513
-2.319 -22.716999 -1.369
-2.2690001 -22.934 -1.3839999
-2.221 -23.195999 -1.401
-2.1700001 -23.434999 -1.4170001
-2.119 -23.686001 -1.434
-2.063 -23.899 -1.448
-2.01 -24.176001 -1.467
-1.984 -24.318001 -1.477
-1.9119999 -24.384001 -1.4809999
0.40400001 -24.153999 -1.579
-2.0079999 -24.169001 -0.875
-1.689 -24.503 -1.488
-1.617 -24.573 -1.492
-1.54 -24.594 -1.493
-1.5039999 -24.639 -1.4960001
-1.431 -24.702999 -1.5
-1.355 -24.745001 -1.503
-1.28 -24.805 -1.507
-2.0969999 -24.476 -0.58200002
-2.02 -24.485001 -0.58200002
-1.969 -24.813999 -0.59200001
-1.9809999 -25.978001 -0.63
-1.905 -26.058001 -0.63200003
-1.827 -26.121 -0.634
-1.8099999 -26.466999 -0.64499998
-1.719 -26.363001 -0.64099997
-1.6339999 -26.334 -0.63999999
-1.548 -26.282 -0.63800001
-1.465 -26.274 -0.63800001
-1.386 -26.344999 -0.63999999
-1.3150001 -26.577999 -0.64700001
-2.4219999 -24.573999 -0.74800003
-2.148 -24.469999 -0.139
-2.0699999 -24.454 -0.138
-1.992 -24.451 -0.138
-1.9299999 -24.642 -0.141
-1.867 -24.848 -0.14399999
-1.876 -26.086 -0.161
-1.9809999 -28.195999 -0.191
-1.825 -27.174 -0.176
-1.747 -27.296 -0.178
-1.61 -26.447001 -0.16599999
-1.525 -26.424 -0.16500001
-1.448 -26.535999 -0.167
-1.402 -27.288 -0.177
-1.373 -27.565001 -0.18099999
-1.776 -25.771 -0.94499999
-1.7130001 -26.038 -0.95700002
-1.652 -26.365999 -0.97100002
-1.614 -26.424999 -0.97399998
-1.524 -26.309999 -0.96899998
-1.4400001 -26.295 -0.96799999
-1.358 -26.311001 -0.96799999
-1.276 -26.325001 -0.96899998
-1.206 -26.612 -0.98100001
-2.1059999 -24.517 -0.745
1.858 -26.165001 -1.603
1.9450001 -26.229 -1.607
2.0320001 -26.275999 -1.6109999
2.1199999 -26.341 -1.6160001
2.1659999 -26.391001 -1.62
-2.066 -24.506001 -0.74400002
2.3440001 -26.521999 -1.63
2.4349999 -26.591999 -1.635
-2.3369999 -22.888 -1.098
-2.2820001 -23.068001 -1.108
-2.2320001 -23.306999 -1.1210001
-1.995 -24.589001 -0.74699998
-2.1619999 -23.743 -1.145
-2.0999999 -23.891001 -1.153
-2.04 -24.080999 -1.163
-1.9859999 -24.35 -1.178
-1.9299999 -24.603001 -1.192
-1.8710001 -24.857 -1.207
-1.853 -25.132999 -1.222
-1.794 -25.417999 -1.238
-1.73 -25.666 -1.252
-1.669 -25.962 -1.268
-2.086 -27.927 0.49000001
-1.5420001 -26.596001 -1.303
-1.475 -26.888 -1.3200001
-1.316 -26.263 -1.284
-1.233 -26.254999 -1.283
-1.16 -26.469999 -1.295
-1.084 -26.655001 -1.3049999
-0.72000003 -23.653999 -1.5420001
-0.64700001 -23.712 -1.5470001
-1.01 -24.868999 -1.51
-0.57499999 -23.806999 -1.553
-1.8940001 -25.177999 -0.91900003
-2.349 -22.812 -0.94800001
-2.303 -23.287001 -0.83700001
0.24600001 -25.437 -1.548
1.179 -24.468 -1.604
-1.448 -23.375 -1.524
-0.164 -23.961 -1.564
0.32600001 -25.464001 -1.55
-1.049 -24.870001 -1.511
-0.31400001 -23.916 -1.561
-0.389 -23.895 -1.5599999
-0.23899999 -23.955 -1.564
-2.3759999 -24.535 0.012
-2.335 -24.517 0.012
-2.2579999 -24.516001 0.012
-2.1789999 -24.503 0.012
-2.263 -24.541 -0.74599999
-2.013 -24.379 0.013
-1.951 -24.568001 0.012
-1.8940001 -24.833 0.0099999998
-2.0569999 -27.503 -0.011
-1.969 -27.489 -0.011
-1.888 -27.566999 -0.012
-1.785 -27.329 -0.0099999998
-1.699 -27.327 -0.0099999998
-1.563 -26.500999 -0.003
-1.478 -26.466 -0.003
-1.48 -27.263 -0.0089999996
-1.404 -27.459999 -0.011
0.40700001 -25.483 -1.551
1.017 -25.726 -1.569
-0.792 -23.591999 -1.538
0.32800001 -24.145 -1.5779999
1.3380001 -24.554001 -1.6109999
-0.428 -25.129999 -1.527
-1.266 -23.424999 -1.527
-2.2839999 -22.891001 -1.22
-2.234 -23.125999 -1.235
0.98199999 -24.361 -1.595
1.061 -24.403999 -1.599
-2.3940001 -24.586 -0.43900001
-2.313 -24.552999 -0.43799999
-2.2709999 -24.527 -0.43799999
-2.1960001 -24.556 -0.43799999
-2.1170001 -24.539 -0.43799999
-2.039 -24.532 -0.43700001
-1.975 -24.698999 -0.44100001
-1.927 -25.1 -0.45199999
-1.914 -26.018999 -0.47600001
-1.904 -26.452999 -0.48699999
-1.8200001 -26.438999 -0.486
-1.734 -26.407 -0.48500001
-1.6440001 -26.292 -0.48199999
-1.562 -26.309 -0.48300001
-1.484 -26.406 -0.48500001
-1.405 -26.48 -0.48699999
-1.388 -26.968 -0.49900001
-2.3740001 -24.531 -0.58399999
-2.296 -24.527 -0.58399999
-2.2160001 -24.504 -0.583
-0.97600001 -23.556999 -1.536
-2.2579999 -22.972 -1.5
-2.1889999 -23.004 -1.501
-2.1760001 -24.492001 -0.583
-2.049 -23.070999 -1.505
-1.977 -23.091999 -1.506
-1.909 -23.146999 -1.51
-1.837 -23.163 -1.511
0.68900001 -25.575001 -1.558
-0.77899998 -24.983999 -1.518
-1.5930001 -23.341 -1.523
-1.521 -23.365999 -1.524
-2.3039999 -27.764999 0.163
-2.2079999 -27.66 0.163
-2.1600001 -27.6 0.164
-2.0699999 -27.556999 0.164
-1.9859999 -27.603001 0.164
-1.909 -27.759001 0.163
-1.832 -27.922001 0.163
-1.753 -28.059999 0.163
-1.939 -24.862 -0.75700003
-1.936 -25.893999 -0.79699999
-1.865 -26.044001 -0.80299997
-1.8 -26.301001 -0.81199998
-1.723 -26.398001 -0.81599998
-1.679 -26.357 -0.81400001
-1.594 -26.322001 -0.81300002
-1.511 -26.319 -0.81199998
-1.427 -26.309 -0.81199998
-1.349 -26.396 -0.815
-1.276 -26.607 -0.82300001
-1.339 -23.409 -1.526
-0.93300003 -24.91 -1.513
0.1 -24.107 -1.575
0.176 -24.121 -1.576
0.252 -24.118 -1.576
-2.3280001 -22.606001 -1.2029999
0.77100003 -25.636999 -1.563
-0.70099998 -25.02 -1.52
-2.181 -23.341999 -1.248
-2.128 -23.580999 -1.262
-2.072 -23.795 -1.275
-2.0550001 -24.033001 -1.289
-2.003 -24.33 -1.307
-1.949 -24.629999 -1.326
-1.8890001 -24.872999 -1.34
-1.831 -25.148001 -1.357
-1.77 -25.422001 -1.374
-1.7079999 -25.702999 -1.391
-1.6849999 -25.976 -1.408
-1.622 -26.284 -1.426
-1.5549999 -26.57 -1.444
-1.4859999 -26.834 -1.46
-1.408 -26.964001 -1.4680001
-1.293 -26.336 -1.428
