# .PCD v0.7 - Point Cloud Data file format
VERSION 0.7
FIELDS x y z
SIZE 4 4 4
TYPE F F F
COUNT 1 1 1
WIDTH 91
HEIGHT 1
VIEWPOINT 0 0 0 1 0 0 0
POINTS 91
DATA ascii
22.485001 -44.895 -0.498
22.938 -47.542 -0.90200001
23.02 -48.609001 -1.198
22.962 -48.094002 -1.1849999
22.983 -47.752998 -1.177
22.966 -47.338001 -1.1670001
22.851 -46.726002 -1.152
22.764 -46.181 -1.138
22.584999 -45.637001 -1.123
22.503 -45.115002 -1.11
22.468 -44.694 -1.1
22.423 -44.257 -1.089
22.347 -43.766998 -1.077
22.455999 -43.306 -1.067
22.941 -48.050999 0.124
22.955 -47.695999 0.124
22.877001 -47.153999 0.125
22.775999 -46.757999 0.126
22.788 -46.411999 0.126
22.781 -46.034 0.127
22.739 -45.588001 0.12800001
22.648001 -45.049999 0.12800001
22.379999 -44.173 0.13
22.256001 -43.587002 0.131
22.09 -43.097 0.131
21.892 -42.382 0.133
22.993999 -48.348 -0.54500002
22.952 -47.870998 -0.53899997
22.893 -47.367001 -0.53200001
22.899 -47.001999 -0.52700001
23.796 -47.731998 0.375
22.797001 -46.424 -0.51899999
22.997 -48.050999 -0.912
22.797001 -46.057999 -0.51499999
22.934 -48.458 0.37599999
23.018 -48.241001 0.375
23.188 -48.208 0.375
23.226999 -48.096001 0.375
23.292 -47.845001 0.375
23.466999 -47.821999 0.375
23.625 -47.764 0.375
22.986 -48.418999 -0.91900003
23.983 -47.733002 0.375
24.148001 -47.685001 0.375
22.902 -47.089001 -0.89300001
24.419001 -47.661999 0.37599999
24.577999 -47.605 0.37599999
22.808001 -46.523998 -0.88099998
22.465 -44.924999 -0.84799999
22.450001 -44.477001 -0.493
22.372999 -43.368 -0.81800002
22.398001 -43.084999 -0.81300002
22.569 -43.082001 -0.815
22.729 -45.994999 -0.87099999
22.462999 -44.155998 -0.48899999
22.608 -45.389999 -0.85799998
22.438999 -44.521999 -0.83999997
24.261999 -47.726002 0.37599999
21.641001 -47.485001 -1.466
21.766001 -47.363998 -1.464
21.898001 -47.258999 -1.4630001
22.006001 -47.105 -1.46
22.143 -47.012001 -1.459
22.139999 -46.814999 -1.4529999
22.24 -46.646 -1.45
22.297001 -46.389999 -1.443
22.384001 -46.196999 -1.439
22.444 -45.953999 -1.433
22.502001 -45.708 -1.426
22.343 -45.026001 -1.404
22.277 -44.715 -1.395
22.173 -44.159 -1.377
22.076 -43.622002 -1.36
22.004 -43.141998 -1.346
22.478001 -43.845001 -0.48500001
22.174 -42.919998 -0.472
22.233 -42.705002 -0.46900001
22.132 -42.348999 -0.46399999
22.525999 -45.331001 -0.50400001
22.934 -48.112 -0.214
22.872 -47.596001 -0.20999999
22.839001 -47.147999 -0.207
22.851999 -46.797001 -0.205
22.681999 -46.265999 -0.2
22.652 -45.839001 -0.197
22.506001 -45.183998 -0.192
22.337999 -44.495998 -0.18700001
22.253 -43.98 -0.183
22.159 -43.455002 -0.17900001
22.09 -42.985001 -0.175
21.902 -42.453999 -0.171
