# .PCD v0.7 - Point Cloud Data file format
VERSION 0.7
FIELDS x y z
SIZE 4 4 4
TYPE F F F
COUNT 1 1 1
WIDTH 73
HEIGHT 1
VIEWPOINT 0 0 0 1 0 0 0
POINTS 73
DATA ascii
-0.83099997 -30.091999 -0.030999999
-1.316 -29.344 -0.736
-1.219 -29.242001 -0.73199999
-1.131 -29.35 -0.736
-1.038 -29.329 -0.73500001
-0.94800001 -29.408001 -0.73699999
-0.85500002 -29.385 -0.73699999
-0.81300002 -29.507999 -0.74000001
-1.214 -30.146999 -0.21699999
-1.118 -30.118999 -0.21699999
-1.022 -30.059999 -0.21600001
-0.91799998 -29.761 -0.212
-0.86400002 -29.487 -0.208
-0.76999998 -29.465 -0.208
-0.67799997 -29.482 -0.208
-1.2079999 -28.601999 -1.0700001
-1.176 -28.917999 -1.084
-1.098 -29.245001 -1.098
-1.016 -29.518999 -1.11
-0.93099999 -29.771999 -1.1210001
-0.847 -30.118 -1.137
-0.73900002 -29.6 -1.113
-0.64200002 -29.436001 -1.1059999
-1.232 -29.375 -0.56199998
-1.148 -29.604 -0.56800002
-1.0599999 -29.736 -0.57099998
-1.007 -29.229 -1.451
-0.97399998 -29.587999 -1.471
-0.88800001 -29.825001 -1.484
-0.79699999 -29.937 -1.49
-0.69400001 -29.554001 -1.469
-0.50300002 -29.302 -1.454
-0.41999999 -29.910999 -1.488
-0.37599999 -30.103001 -1.499
-0.28200001 -30.186001 -1.5039999
-0.18799999 -30.249001 -1.507
0.097999997 -30.334999 -1.512
0.193 -30.412001 -1.517
0.241 -30.422001 -1.517
0.33700001 -30.462999 -1.52
-1.092 -28.742001 -1.2410001
-1.059 -29.070999 -1.257
-0.97899997 -29.431999 -1.275
-0.898 -29.836 -1.295
-0.81199998 -30.128 -1.3099999
-0.70200002 -29.452 -1.276
-0.60799998 -29.403999 -1.273
-0.81400001 -29.472 -0.41299999
-1.281 -29.546 -0.41499999
-1.2130001 -30.169001 -0.428
-1.117 -30.135 -0.42699999
-0.99800003 -29.429001 -0.412
-0.90399998 -29.402 -0.412
-0.77100003 -29.583 -0.41499999
-1.033 -30.334999 0.15899999
-1.219 -28.24 -0.88599998
-1.247 -27.871 -0.87199998
-0.95700002 -29.461 -0.56400001
-1.15 -28.759001 -0.90600002
-1.076 -29.194 -0.92199999
-0.995 -29.542999 -0.93599999
-0.91500002 -29.961 -0.95200002
-0.81900001 -29.916 -0.94999999
-0.912 -29.493999 -0.565
-0.66799998 -29.438 -0.93099999
-1.086 -28.881001 -1.431
-0.81999999 -29.518999 -0.565
-0.71399999 -29.421 -0.93099999
-1.261 -30.191 -0.032000002
-1.165 -30.159 -0.032000002
-1.0700001 -30.136 -0.032000002
-1.022 -30.142 -0.032000002
-0.92699999 -30.111 -0.032000002
