# .PCD v0.7 - Point Cloud Data file format
VERSION 0.7
FIELDS x y z
SIZE 4 4 4
TYPE F F F
COUNT 1 1 1
WIDTH 85
HEIGHT 1
VIEWPOINT 0 0 0 1 0 0 0
POINTS 85
DATA ascii
-0.67900002 -31.742001 -0.044
-0.579 -31.736 -0.044
-0.48199999 -31.908001 -0.046
-0.259 -35.327999 -0.072999999
-0.037 -35.347 -0.072999999
0.074000001 -35.333 -0.072999999
0.186 -35.429001 -0.072999999
-0.77700001 -31.787001 -0.81300002
-0.67699999 -31.764999 -0.81300002
-0.57700002 -31.768999 -0.81300002
-0.484 -32.153999 -0.82499999
-0.38499999 -32.334 -0.83099997
-0.28799999 -32.841 -0.847
-0.242 -33.535 -0.86900002
-0.14 -34.182999 -0.88999999
-0.033 -34.676998 -0.90600002
0.075999998 -35.143002 -0.92000002
0.189 -35.675999 -0.93800002
-0.62800002 -31.712999 -0.23899999
-0.528 -31.723 -0.23899999
-0.433 -32.057999 -0.244
-0.197 -35.363998 -0.28999999
-0.086000003 -35.348999 -0.28999999
0.025 -35.323002 -0.28999999
0.13600001 -35.311001 -0.289
-0.64600003 -31.798 -1.211
-0.546 -31.799999 -1.211
-0.61900002 -31.771999 -1.021
-0.35699999 -32.726002 -1.252
-0.25799999 -33.206001 -1.273
-0.15700001 -33.712002 -1.296
-0.052000001 -34.18 -1.317
0.001 -34.646 -1.337
0.112 -35.224998 -1.363
0.22499999 -35.740002 -1.386
-0.204 -35.419998 -0.53799999
0.134 -35.363998 0.152
0.24699999 -35.678001 0.15099999
0.078000002 -35.403999 0.152
-0.78200001 -31.834 -0.62599999
-0.68199998 -31.816 -0.625
-0.58099997 -31.792 -0.62400001
-0.48500001 -32.035999 -0.63099998
-0.255 -35.452 -0.72000003
-0.14399999 -35.43 -0.71899998
-0.033 -35.411999 -0.71899998
0.079000004 -35.382 -0.71799999
0.192 -35.686001 -0.72600001
-0.072999999 -34.189999 -1.114
-0.033 -35.408001 0.152
-0.55500001 -31.746 -1.391
-0.50700003 -31.868999 -1.397
-0.412 -32.296001 -1.418
-0.315 -32.807999 -1.444
-0.214 -33.134998 -1.46
-0.11 -33.241001 -1.465
-0.0049999999 -33.356998 -1.471
0.1 -33.477001 -1.477
0.153 -33.480999 -1.478
0.25799999 -33.515999 -1.479
0.36399999 -33.558998 -1.482
0.47 -33.632999 -1.485
0.57700002 -33.709999 -1.489
0.94999999 -33.766998 -1.493
1.057 -33.796001 -1.494
-0.73000002 -31.802999 -0.46200001
-0.889 -32.07 0.15700001
-0.787 -32.019001 0.15700001
-0.68599999 -32.014999 0.15700001
-0.45300001 -32.244999 -1.2309999
-0.093000002 -35.41 -0.537
0.017999999 -35.372002 -0.537
0.13 -35.400002 -0.537
-0.255 -35.428001 0.152
-0.14399999 -35.417999 0.152
-0.63 -31.768999 -0.461
-0.52200001 -31.948 -1.028
-0.42699999 -32.426998 -1.046
-0.33000001 -32.880001 -1.064
-0.229 -33.299999 -1.08
-0.125 -33.664001 -1.094
-0.53100002 -31.816 -0.46200001
0.035 -34.681999 -1.133
0.147 -35.185001 -1.152
0.26100001 -35.698002 -1.1720001
