# .PCD v0.7 - Point Cloud Data file format
VERSION 0.7
FIELDS x y z
SIZE 4 4 4
TYPE F F F
COUNT 1 1 1
WIDTH 89
HEIGHT 1
VIEWPOINT 0 0 0 1 0 0 0
POINTS 89
DATA ascii
19.032 30.024 -0.54000002
18.903999 30.030001 -0.53899997
18.796 30.068001 -0.53799999
18.693001 30.114 -0.53799999
20.268999 29.882 0.32100001
18.375 29.014 0.315
18.278999 29.063 0.315
18.216 29.166 0.315
18.132999 29.237 0.315
18.642 30.808001 0.31999999
18.635 31.014999 0.32100001
18.586 31.153999 0.32100001
20.392 29.486 1.025
20.198999 29.405001 1.021
20.075001 29.422001 1.02
19.917 29.587999 1.021
19.65 29.691 1.0190001
19.586 29.798 1.02
19.226 30.066999 1.021
19.004999 29.927999 1.016
18.950001 29.944 1.015
18.74 29.819 1.01
18.761 30.063 1.015
18.701 30.177999 1.017
17.851999 29.214001 0.98799998
18.868 29.987 -0.29100001
18.764999 30.032 -0.29100001
18.684 30.111 -0.29100001
18.676001 30.205 -0.292
19.079 29.999001 -0.93400002
18.93 29.973 -0.93000001
18.820999 30.009001 -0.92900002
18.704 30.030001 -0.92799997
18.438 29.878 -1.358
18.150999 29.622999 -1.342
19.886999 29.639 1.189
19.347 30.250999 1.1950001
19.094999 30.066 1.187
18.903 29.969999 1.182
18.822001 30.051001 1.183
18.726 30.107 1.183
18.570999 30.069 1.1799999
18.534 30.219999 1.183
20.354 30.018 0.574
20.004 29.702 0.56900001
19.885 29.625 0.56800002
19.971001 29.957001 0.57099998
19.652 29.68 0.56699997
19.705999 30.171 0.57099998
19.636999 30.273001 0.57200003
19.507999 30.283001 0.57099998
19.639999 30.593 0.57499999
18.396 28.851999 0.55299997
18.436001 29.115999 0.55500001
18.643 29.65 0.56099999
18.754 30.035999 0.565
18.702 30.163 0.56599998
18.546 30.122999 0.565
18.785999 30.621 0.56999999
18.834999 30.919001 0.57300001
18.768999 31.028999 0.574
18.943001 29.987 -0.074000001
18.875 29.985001 -0.072999999
18.763 30.014999 -0.072999999
18.700001 30.125 -0.074000001
19.489 30.302 1.427
18.733 30.157 1.41
18.968 30.037001 -0.722
18.844 30.049 -0.72000003
18.816999 30.110001 -0.72100002
18.941 30.098 0.15099999
18.804001 30.09 0.15099999
18.716999 30.160999 0.15099999
19.631001 30.292999 0.75700003
19.6 30.452999 0.759
19.433001 30.403999 0.75700003
19.207001 30.259001 0.75300002
18.33 29.080999 0.73100001
18.427 29.438 0.736
18.167999 29.128 0.73000002
18.025999 29.103001 0.72799999
17.929001 29.150999 0.72799999
17.671 28.934999 0.72299999
17.562 28.961 0.72299999
17.459999 28.997 0.72299999
19.0 30.007999 -1.165
18.868999 30.007999 -1.1619999
18.775 30.069 -1.163
18.726 30.201 -1.166
