# .PCD v0.7 - Point Cloud Data file format
VERSION 0.7
FIELDS x y z
SIZE 4 4 4
TYPE F F F
COUNT 1 1 1
WIDTH 88
HEIGHT 1
VIEWPOINT 0 0 0 1 0 0 0
POINTS 88
DATA ascii
18.792999 -28.575001 -0.064000003
18.834999 -28.444 -0.063000001
18.950001 -28.423 -0.063000001
18.996 -28.299 -0.063000001
18.684 -28.503 -0.68400002
18.740999 -28.492001 -0.685
18.856001 -28.471001 -0.68599999
18.945999 -28.413 -0.68599999
19.068001 -28.402 -0.68699998
18.934999 -28.591 0.153
18.816999 -28.780001 -1.122
18.892 -28.698 -1.12
18.948 -28.392 -1.112
18.961 -28.316 -1.11
14.855 -32.231998 -1.5779999
14.905 -32.207001 -1.5779999
14.995 -32.136002 -1.577
15.097 -32.092999 -1.577
15.213 -32.076 -1.579
15.326 -32.055 -1.58
15.44 -32.033001 -1.582
15.547 -31.997 -1.5829999
15.616 -32.012001 -1.585
15.74 -32.009998 -1.587
15.87 -32.021 -1.591
16.011 -32.050999 -1.595
16.139 -32.054001 -1.598
16.247 -32.02 -1.599
16.365 -32.001999 -1.601
16.436001 -32.014999 -1.603
16.551001 -31.992001 -1.605
16.695999 -32.025002 -1.61
16.806 -31.992001 -1.6109999
16.926001 -31.976 -1.613
17.143 -32.139 -1.625
17.226 -32.054001 -1.624
17.249001 -31.975 -1.6210001
17.322001 -31.870001 -1.618
17.375999 -31.732 -1.613
17.445 -31.622999 -1.61
17.533001 -31.547001 -1.609
17.621 -31.472 -1.607
17.740999 -31.452999 -1.61
17.811001 -31.462 -1.612
17.854 -31.309 -1.6059999
17.966999 -31.278 -1.608
18.042999 -31.184 -1.605
18.114 -31.08 -1.603
18.204 -31.01 -1.602
18.195999 -30.775 -1.592
18.188 -30.652 -1.586
18.146 -30.363001 -1.572
18.148001 -30.152 -1.563
18.038 -29.757 -1.544
18.149 -29.729 -1.545
18.181 -29.573 -1.539
18.158001 -29.329 -1.528
18.101 -29.135 -1.5190001
18.077 -28.893 -1.508
18.073 -28.686001 -1.499
18.087999 -28.511 -1.492
18.163 -28.236 -1.482
18.23 -28.145 -1.48
18.275 -28.118 -1.48
18.336 -28.018999 -1.478
18.443001 -27.990999 -1.48
18.518 -27.913 -1.478
18.613001 -27.865999 -1.479
18.681999 -27.778999 -1.477
18.775 -27.729 -1.478
18.802 -27.676001 -1.476
18.802 -28.681999 -0.89300001
18.868 -28.587999 -0.89200002
18.905001 -28.351999 -0.88599998
18.976999 -28.358999 -0.273
19.129 -28.392 -0.27399999
18.697001 -28.421 -0.271
18.747999 -28.400999 -0.271
18.861 -28.379 -0.27200001
18.666 -28.382 -0.50700003
18.813 -28.41 -0.509
18.893 -28.434 -0.51099998
18.986 -28.381001 -0.51099998
19.215 -28.528999 -0.51599997
18.799 -28.813999 -1.327
18.902 -28.773001 -1.3279999
18.870001 -28.334 -1.311
18.893999 -28.177999 -1.3049999
