# .PCD v0.7 - Point Cloud Data file format
VERSION 0.7
FIELDS x y z
SIZE 4 4 4
TYPE F F F
COUNT 1 1 1
WIDTH 658
HEIGHT 1
VIEWPOINT 0 0 0 1 0 0 0
POINTS 658
DATA ascii
17.677999 -8.3249998 -1.595
18.506001 -6.9679999 -0.42899999
18.525999 -6.9089999 -0.428
18.552 -6.8860002 -0.42899999
18.575001 -6.8280001 -0.42899999
18.606001 -6.7729998 -0.42899999
18.636999 -6.7179999 -0.43000001
18.66 -6.6599998 -0.43000001
18.688 -6.6040001 -0.43000001
18.726 -6.5510001 -0.43099999
18.736 -6.5219998 -0.43099999
18.745001 -6.4590001 -0.43000001
18.778 -6.4050002 -0.43099999
18.802 -6.3470001 -0.43099999
18.830999 -6.2909999 -0.43099999
18.855 -6.2329998 -0.43099999
18.868999 -6.1719999 -0.43099999
17.910999 -8.8599997 -1.033
17.844 -8.0509996 -1.482
17.774 -7.9980001 -1.59
17.475 -9.5179996 -1.265
17.701 -9.4259996 -1.276
17.642 -9.3590002 -1.27
17.653999 -9.2939997 -1.2690001
17.625999 -9.2089996 -1.2640001
17.721001 -9.1879997 -1.2690001
17.815001 -9.165 -1.275
17.739 -9.0559998 -1.266
17.801001 -9.0170002 -1.2690001
17.833 -8.9630003 -1.2690001
17.809999 -8.9169998 -1.266
17.954 -8.9180002 -1.276
17.91 -8.8260002 -1.27
18.004 -8.802 -1.275
18.066 -8.7620001 -1.278
18.103001 -8.5360003 -1.273
18.035999 -8.4350004 -1.266
17.827 -8.2700005 -1.247
17.973 -8.2690001 -1.256
18.017 -8.2200003 -1.258
18.039 -8.1619997 -1.258
18.087999 -8.1499996 -1.26
18.577999 -6.9520001 -0.31299999
18.6 -6.927 -0.31299999
18.625 -6.8699999 -0.31299999
18.649 -6.8119998 -0.31299999
18.164 -7.8439999 -1.257
18.695 -6.6960001 -0.31299999
18.268999 -7.7870002 -1.262
18.75 -6.5830002 -0.31299999
18.290001 -7.6599998 -1.26
18.367001 -7.625 -1.2640001
18.487 -7.6069999 -1.272
18.829 -6.3790002 -0.31400001
18.867001 -6.3260002 -0.31400001
18.893 -6.2690001 -0.31400001
18.955999 -6.256 -0.31600001
18.539 -7.323 -1.267
18.794001 -7.3559999 -1.286
18.789 -7.2859998 -1.284
18.802999 -7.223 -1.283
18.378 -7.027 -1.248
18.802999 -7.1220002 -1.28
18.683001 -7.0100002 -1.2690001
18.782 -6.9790001 -1.275
18.798 -6.9180002 -1.275
18.705 -6.8169999 -1.266
18.802 -6.7859998 -1.272
18.872999 -6.7779999 -1.276
18.973 -6.7459998 -1.2819999
18.809 -6.6220002 -1.268
18.905001 -6.5890002 -1.274
18.917 -6.526 -1.273
19.02 -6.4949999 -1.28
19.004 -6.4229999 -1.277
18.996 -6.3870001 -1.275
19.0 -6.322 -1.274
19.003 -6.257 -1.273
19.089001 -6.2189999 -1.278
19.108999 -6.1589999 -1.278
19.091999 -6.0869999 -1.275
19.09 -6.0209999 -1.274
19.077999 -5.9840002 -1.272
19.089001 -5.9219999 -1.271
16.666 -10.437 -1.6059999
16.707001 -10.39 -1.607
16.735001 -10.371 -1.609
16.771999 -10.321 -1.609
16.832001 -10.285 -1.612
16.868 -10.234 -1.612
16.889 -10.175 -1.6109999
16.945 -10.136 -1.614
16.982 -10.086 -1.614
17.09 -9.9689999 -1.617
17.268 -9.6780005 -1.618
18.552999 -6.954 -0.20999999
18.587999 -6.901 -0.211
18.597 -6.8709998 -0.211
18.625999 -6.8150001 -0.211
18.622999 -6.7480001 -0.20999999
18.657 -6.6939998 -0.211
18.687 -6.6389999 -0.211
18.708 -6.5799999 -0.211
18.729 -6.5209999 -0.211
18.77 -6.4689999 -0.211
18.771 -6.4369998 -0.211
18.809999 -6.3839998 -0.211
18.827999 -6.3239999 -0.211
18.857 -6.2680001 -0.212
18.871 -6.2069998 -0.211
18.907 -6.1529999 -0.212
17.41 -8.9809999 -1.6
17.708 -9.3559999 -0.80199999
17.507 -9.0530005 -1.493
17.694 -9.2419996 -0.79900002
17.563999 -8.9429998 -1.493
17.583 -8.8830004 -1.492
17.608999 -8.8269997 -1.492
17.631001 -8.7690001 -1.492
17.648001 -8.743 -1.492
17.686001 -8.6929998 -1.493
17.858999 -8.8690004 -0.79799998
17.405001 -9.4849997 -1.1619999
17.414 -9.4189997 -1.16
17.454 -9.3699999 -1.161
17.725 -8.573 -1.492
17.535999 -9.3079996 -1.164
17.544001 -9.2419996 -1.1619999
17.601999 -9.2019997 -1.164
17.620001 -9.1409998 -1.164
17.625 -9.0740004 -1.1619999
17.726999 -9.0550003 -1.1670001
17.868999 -9.0579996 -1.176
17.753 -8.9639997 -1.166
17.827999 -8.9309998 -1.17
17.782 -8.8389997 -1.164
17.839001 -8.7969999 -1.166
17.92 -8.7670002 -1.17
17.965 -8.7200003 -1.1720001
18.000999 -8.493 -1.1670001
17.986 -8.4169998 -1.164
18.457001 -8.5679998 -1.198
18.009001 -8.2910004 -1.1619999
18.122 -8.2740002 -1.169
18.093 -8.2259998 -1.165
17.945 -8.0909996 -1.152
18.021 -8.0570002 -1.156
18.105 -8.026 -1.16
18.106001 -7.9590001 -1.159
18.27 -7.9629998 -1.169
18.297001 -7.9060001 -1.169
18.209999 -7.835 -1.1619999
18.490999 -7.8870001 -1.181
18.254999 -7.7189999 -1.1619999
18.243 -7.6459999 -1.159
18.188999 -7.5560002 -1.153
18.341999 -7.552 -1.163
18.414 -7.5139999 -1.166
18.393999 -7.473 -1.164
18.625999 -7.4990001 -1.179
18.452999 -7.362 -1.165
18.413 -7.2789998 -1.16
18.500999 -7.2470002 -1.165
18.544001 -7.1960001 -1.166
18.58 -7.177 -1.168
18.347 -7.02 -1.149
18.587 -7.046 -1.166
18.563 -6.9699998 -1.1619999
18.611 -6.921 -1.164
18.870001 -6.9499998 -1.181
18.742001 -6.836 -1.17
18.974001 -6.8870001 -1.187
18.950001 -6.8109999 -1.183
18.844 -6.7059999 -1.174
18.792999 -6.6220002 -1.169
18.780001 -6.5510001 -1.166
18.820999 -6.4990001 -1.168
18.885 -6.4549999 -1.171
18.882 -6.4200001 -1.17
18.860001 -6.3470001 -1.1670001
18.931 -6.3049998 -1.171
18.525 -6.9640002 -0.071999997
18.549999 -6.9070001 -0.071999997
18.546 -6.8720002 -0.071999997
18.575001 -6.8169999 -0.071999997
18.6 -6.7600002 -0.071999997
18.621 -6.7010002 -0.071999997
18.653999 -6.6469998 -0.071999997
18.676001 -6.5890002 -0.071999997
18.701 -6.5310001 -0.071999997
18.715 -6.5029998 -0.071999997
18.743999 -6.448 -0.071999997
18.766001 -6.3889999 -0.071999997
18.798 -6.3340001 -0.071999997
18.82 -6.276 -0.072999999
18.849001 -6.2199998 -0.072999999
18.836 -6.1830001 -0.071999997
17.872999 -7.6739998 -1.587
18.073 -7.848 -1.493
18.099001 -7.7919998 -1.493
18.129 -7.7379999 -1.493
18.149 -7.6789999 -1.493
16.486 -10.725 -1.607
18.174 -7.6560001 -1.494
18.197001 -7.598 -1.494
17.959 -7.3460002 -1.582
18.263 -7.5580001 -1.498
18.896999 -6.2290001 -0.56300002
16.51 -10.704 -1.607
18.888 -6.1599998 -0.56199998
16.35 -10.932 -1.607
16.393 -10.886 -1.608
16.41 -10.823 -1.6059999
16.445999 -10.773 -1.6059999
18.476 -6.9250002 0.050000001
18.542999 -6.8839998 0.050000001
18.555 -6.822 0.050000001
18.569 -6.7610002 0.050000001
18.656 -6.7259998 0.050000001
18.653 -6.6589999 0.050000001
18.663 -6.6300001 0.050000001
18.684 -6.5710001 0.050000001
18.714001 -6.5159998 0.050000001
18.746 -6.461 0.050000001
18.771 -6.4039998 0.050000001
18.790001 -6.3439999 0.050000001
18.816999 -6.2880001 0.050000001
18.848 -6.2319999 0.048999999
18.846001 -6.1989999 0.050000001
17.007999 -10.065 -1.615
17.038 -10.011 -1.615
18.693001 -7.145 -0.801
17.132 -9.9219999 -1.619
17.152 -9.8620005 -1.617
17.187 -9.8100004 -1.618
17.212 -9.7889996 -1.619
17.233999 -9.7299995 -1.618
18.511 -6.8889999 -1.497
17.267 -9.6059999 -1.615
17.219 -9.5080004 -1.607
17.204 -9.4289999 -1.602
17.256001 -9.3870001 -1.604
17.257999 -9.3540001 -1.603
18.527 -6.862 -1.497
17.285 -9.2279997 -1.6
17.256001 -9.1429996 -1.594
17.336 -9.1149998 -1.599
17.377001 -9.0670004 -1.6
17.414 -9.0170002 -1.601
18.583 -6.9029999 -0.792
17.433001 -8.9230003 -1.599
17.441999 -8.8590002 -1.597
17.483 -8.8109999 -1.598
17.502001 -8.7519999 -1.598
17.524 -8.6940002 -1.597
17.530001 -8.6280003 -1.595
17.559999 -8.6090002 -1.596
17.558001 -8.5389996 -1.594
18.466999 -6.6430001 -1.4859999
17.677 -8.257 -1.592
17.683001 -8.2250004 -1.591
17.752001 -8.1899996 -1.596
17.743 -8.118 -1.592
17.805 -8.0790005 -1.596
18.565001 -6.612 -1.493
17.794001 -7.9390001 -1.59
17.837 -7.8920002 -1.592
18.431999 -7.0580001 -1.4960001
17.837 -7.7909999 -1.5880001
17.827 -7.7199998 -1.585
18.589001 -6.5549998 -1.493
17.837 -7.592 -1.581
17.884001 -7.546 -1.5829999
17.889999 -7.4819999 -1.581
17.950001 -7.441 -1.585
17.985001 -7.4229999 -1.587
19.332001 -6.8709998 -0.82700002
17.997 -7.2950001 -1.584
17.896999 -7.1890001 -1.572
18.073 -7.1939998 -1.587
18.127001 -7.1500001 -1.59
18.152 -7.0939999 -1.59
18.098 -7.04 -1.584
18.183001 -7.007 -1.59
18.225 -6.9580002 -1.592
18.204 -6.8850002 -1.5880001
18.252001 -6.8369999 -1.59
18.298 -6.789 -1.5930001
18.305 -6.7589998 -1.592
18.326 -6.7010002 -1.592
18.33 -6.6370001 -1.591
18.336 -6.5739999 -1.589
18.365999 -6.52 -1.59
18.407 -6.4699998 -1.592
18.423 -6.4109998 -1.592
18.437 -6.3509998 -1.591
18.419001 -6.3119998 -1.589
18.437 -6.2529998 -1.5880001
18.455 -6.1950002 -1.5880001
18.472 -6.1360002 -1.5880001
18.495001 -6.079 -1.5880001
18.361 -5.9710002 -1.574
18.523001 -5.96 -1.587
16.646 -10.498 -1.608
18.771 -6.54 -0.79500002
18.795 -6.1989999 -1.5
18.829 -6.177 -1.503
18.596001 -6.9920001 0.176
18.601999 -6.928 0.176
18.652 -6.8800001 0.176
18.649 -6.8119998 0.176
18.671 -6.7540002 0.176
18.693001 -6.7280002 0.176
18.725 -6.6729999 0.176
18.726999 -6.6079998 0.176
18.764999 -6.5549998 0.176
18.799999 -6.5009999 0.176
18.806999 -6.4380002 0.176
18.903999 -6.0700002 -1.506
18.870001 -6.3600001 0.176
18.884001 -6.2989998 0.176
18.910999 -6.2420001 0.176
18.915001 -6.177 0.176
17.764 -8.9960003 -1.029
17.875 -8.9820004 -1.035
18.775 -6.4749999 -0.79400003
17.885 -9.1719999 -0.93400002
17.926001 -8.7969999 -1.033
17.912001 -8.7209997 -1.03
17.957001 -8.7069998 -1.0319999
17.878 -8.3940001 -1.0190001
17.934999 -8.3520002 -1.021
17.954 -8.2919998 -1.021
17.938 -8.2510004 -1.0190001
17.93 -8.1789999 -1.016
18.121 -8.1969995 -1.028
18.249001 -8.1859999 -1.035
18.313999 -8.1459999 -1.0369999
18.214001 -8.033 -1.029
18.288 -8.0319996 -1.033
18.237 -7.941 -1.028
18.183001 -7.849 -1.022
18.378 -7.8649998 -1.034
18.348 -7.7839999 -1.03
18.333 -7.71 -1.028
18.415001 -7.6760001 -1.031
18.326 -7.572 -1.024
18.261999 -7.5120001 -1.0190001
18.249001 -7.4400001 -1.016
18.4 -7.434 -1.025
18.41 -7.3709998 -1.024
18.318001 -7.2670002 -1.016
18.518999 -7.2800002 -1.028
18.440001 -7.1820002 -1.021
18.358 -7.1170001 -1.015
18.698999 -7.1810002 -1.036
18.712 -7.119 -1.036
18.603001 -7.0110002 -1.027
18.59 -6.9390001 -1.025
18.641001 -6.8920002 -1.027
18.663 -6.8330002 -1.027
18.790001 -6.8460002 -1.034
18.865999 -6.8070002 -1.038
18.882 -6.7449999 -1.038
18.882 -6.6789999 -1.036
18.99 -6.6490002 -1.0420001
18.950001 -6.5689998 -1.038
18.93 -6.5289998 -1.036
18.922001 -6.46 -1.034
18.912001 -6.3899999 -1.0319999
19.028999 -6.3629999 -1.038
19.000999 -6.2870002 -1.035
18.914 -6.1929998 -1.028
18.987 -6.151 -1.0319999
19.225 -6.1939998 -1.0470001
19.326 -6.1589999 -1.052
19.375999 -6.1079998 -1.054
19.24 -5.9990001 -1.044
19.171 -5.9120002 -1.038
19.191999 -5.8520002 -1.038
19.155001 -5.7750001 -1.035
19.106001 -5.7280002 -1.031
19.252001 -5.7059999 -1.039
19.228001 -5.6329999 -1.0369999
17.965 -8.4420004 -0.91900003
18.066 -8.1120005 -0.917
17.466 -9.4750004 -1.027
18.233999 -7.5489998 -1.382
17.653999 -9.3979998 -1.035
18.236 -7.7779999 -0.91799998
17.615 -9.3070002 -1.03
18.854 -6.3870001 0.176
17.620001 -9.1680002 -1.026
18.396 -7.5489998 -1.3940001
17.635 -9.1059999 -1.025
17.716 -9.1120005 -1.03
17.747 -9.0579996 -1.03
17.858 -8.9029999 -1.0319999
17.775 -8.8430004 -1.392
17.851 -8.8459997 -1.397
19.264999 -7.0619998 -0.95700002
18.087999 -8.1630001 -1.391
17.952 -8.0679998 -1.378
18.079 -8.0570002 -1.387
18.033001 -7.9679999 -1.381
18.049 -7.908 -1.38
17.417999 -9.3859997 -0.91600001
18.066 -7.848 -1.3789999
17.572001 -9.3269997 -0.92199999
17.666 -9.3070002 -0.926
17.605 -9.2390003 -0.921
17.681999 -9.2080002 -0.92400002
17.684 -9.1389999 -0.92299998
18.125999 -7.8060002 -1.382
17.791 -9.0530005 -0.926
17.864 -9.0200005 -0.92900002
17.988001 -9.0120001 -0.935
17.809 -8.8870001 -0.92199999
17.792999 -8.809 -0.92000002
18.247 -7.7909999 -1.391
17.851 -8.6990004 -0.92000002
18.271 -7.7670002 -1.392
17.969 -8.3059998 -0.91600001
18.014999 -8.2589998 -0.91799998
18.080999 -8.2209997 -0.92000002
18.037001 -8.1330004 -0.91600001
18.271 -7.6989999 -1.39
18.07 -8.0450001 -0.91500002
18.080999 -7.9819999 -0.91500002
18.155001 -7.947 -0.91799998
18.235001 -7.9130001 -0.921
18.16 -7.8130002 -0.91500002
18.250999 -7.6230001 -1.386
18.313 -7.777 -0.92199999
18.297001 -7.7020001 -0.92000002
18.389 -7.6729999 -0.92400002
18.264 -7.5539999 -0.91500002
18.315001 -7.5079999 -0.91600001
18.334999 -7.4489999 -0.91600001
18.295 -7.3649998 -0.912
18.32 -7.309 -0.912
18.614 -7.3249998 -0.92799997
18.561001 -7.237 -0.92299998
18.511 -7.1500001 -0.91900003
18.618999 -7.125 -0.92400002
18.632 -7.0630002 -0.92400002
18.693001 -7.0190001 -0.926
18.68 -6.9809999 -0.92500001
19.518 -7.2249999 -0.97399998
18.865999 -6.2849998 -0.56300002
18.933001 -6.8730001 -0.93599999
18.847 -6.7740002 -0.92900002
19.219999 -6.8410001 -0.95099998
18.971001 -6.651 -0.93400002
19.143 -6.6440001 -0.94300002
18.896999 -6.4920001 -0.92699999
19.413 -6.6020002 -0.95599997
18.877001 -6.3530002 -0.92299998
18.768 -6.2509999 -0.91600001
18.909 -6.2319999 -0.92299998
18.944 -6.21 -0.92400002
18.969 -6.152 -0.92500001
19.136 -6.1409998 -0.93300003
19.348 -6.1420002 -0.94499999
19.118999 -6.0029998 -0.93000001
19.18 -5.9559999 -0.93300003
19.17 -5.8870001 -0.93099999
19.601 -5.9860001 -0.95599997
19.813 -5.9829998 -0.96700001
19.33 -5.77 -0.93800002
19.476999 -5.7480001 -0.94499999
19.264999 -5.619 -0.93199998
18.049999 -8.302 -0.79400003
17.870001 -8.7779999 -0.92299998
17.497 -9.323 -1.1619999
18.047001 -8.2320004 -0.79299998
17.363001 -9.6099997 -1.505
17.353001 -9.533 -1.501
17.349001 -9.46 -1.498
17.334 -9.4169998 -1.495
17.35 -9.3549995 -1.493
17.391001 -9.3070002 -1.495
17.422001 -9.2530003 -1.495
17.450001 -9.1969995 -1.495
17.457001 -9.132 -1.493
17.482 -9.1099997 -1.494
17.684 -9.3079996 -0.80000001
17.542999 -9.0010004 -1.494
17.742001 -9.1960001 -0.80000001
17.737 -9.1230001 -0.79799998
17.834999 -9.1029997 -0.80199999
17.827999 -9.0290003 -0.80000001
17.792 -8.9750004 -0.79699999
17.951 -8.9849997 -0.80400002
17.702999 -8.632 -1.492
17.855 -8.7969999 -0.796
18.028999 -8.8120003 -0.80400002
18.055 -8.7550001 -0.80400002
17.809 -8.3739996 -1.4910001
17.846001 -8.323 -1.492
17.865 -8.2629995 -1.4910001
17.891001 -8.2069998 -1.4910001
17.905001 -8.1459999 -1.49
18.101999 -8.2229996 -0.79500002
17.976 -8.0419998 -1.492
17.985001 -8.0129995 -1.492
18.261 -8.0880003 -0.79900002
18.025999 -7.895 -1.4910001
18.167999 -7.9109998 -0.792
18.158001 -7.8390002 -0.79000002
18.15 -7.802 -0.78899997
18.188 -7.75 -0.78899997
18.219 -7.6960001 -0.79000002
18.249001 -7.6409998 -0.79000002
18.257999 -7.5780001 -0.78899997
18.157 -7.448 -1.4859999
18.232 -7.4120002 -1.4910001
18.252001 -7.3530002 -1.4910001
18.284 -7.3000002 -1.4910001
18.318001 -7.2800002 -1.493
18.368 -7.2329998 -1.4960001
18.259001 -7.1240001 -1.484
19.403999 -7.5209999 -0.84100002
18.458 -7.0019999 -1.4960001
18.487 -6.9460001 -1.497
18.792 -7.1149998 -0.80500001
18.632999 -6.9879999 -0.796
18.534 -6.7979999 -1.4960001
18.527 -6.73 -1.493
19.098 -6.9580002 -0.81699997
19.326 -6.9720001 -0.82800001
19.316 -6.9000001 -0.82599998
18.679001 -6.5209999 -1.5
18.709999 -6.4980001 -1.502
18.725 -6.4380002 -1.501
18.738001 -6.3759999 -1.501
18.763 -6.3189998 -1.501
18.811001 -6.27 -1.5039999
18.893999 -6.3179998 -0.79699999
19.097 -6.3520002 -0.80699998
18.870001 -6.125 -1.5039999
18.912001 -6.1589999 -0.79500002
18.921 -6.0100002 -1.506
18.952999 -5.9549999 -1.507
17.26 -9.2840004 -1.6
17.938999 -7.9250002 -1.485
17.829 -7.855 -1.59
16.535999 -10.648 -1.607
17.98 -8.2410002 -0.676
17.964001 -8.1660004 -0.67400002
18.049 -8.1370001 -0.67699999
18.521 -7.0190001 -0.67699999
18.532 -6.9569998 -0.67699999
18.577999 -6.9070001 -0.67799997
18.587999 -6.8449998 -0.67699999
18.617001 -6.789 -0.67799997
18.632999 -6.7620001 -0.67799997
18.67 -6.7090001 -0.67900002
18.702 -6.6539998 -0.67900002
18.725 -6.5960002 -0.67900002
18.745001 -6.5370002 -0.67900002
18.781 -6.4840002 -0.68000001
18.805 -6.4260001 -0.68000001
18.804001 -6.3920002 -0.68000001
18.841 -6.3390002 -0.68099999
18.858999 -6.2789998 -0.68000001
18.962 -6.2480001 -0.68400002
18.881001 -6.2220001 -1.166
17.995001 -8.04 -1.251
18.9 -6.1630001 -1.166
18.084 -8.0120001 -1.256
19.025999 -6.138 -1.173
18.122 -7.961 -1.257
18.997999 -6.0630002 -1.17
18.128 -7.8959999 -1.256
19.062 -6.0510001 -1.174
18.667999 -6.7519999 -0.31299999
19.296 -6.0580001 -1.189
18.375999 -7.901 -1.273
18.714001 -6.6360002 -0.31299999
18.368999 -7.7610002 -1.268
18.757999 -6.553 -0.31299999
18.801001 -6.5019999 -0.31400001
18.822001 -6.4419999 -0.31400001
18.466999 -7.5300002 -1.268
18.396999 -7.4689999 -1.262
18.354 -7.3839998 -1.256
18.316 -7.302 -1.252
18.913 -6.1760001 -0.31400001
16.573 -10.598 -1.607
18.035999 -8.4329996 -0.796
17.438 -9.4759998 -1.391
17.441999 -9.4069996 -1.3890001
17.524 -9.3800001 -1.3940001
17.552 -9.3240004 -1.393
17.634001 -9.2969999 -1.398
17.667999 -9.2449999 -1.399
17.693001 -9.2220001 -1.4
17.674 -9.1420002 -1.395
17.694 -9.0819998 -1.395
17.709999 -9.0200005 -1.393
17.676001 -8.9329996 -1.388
17.716999 -8.8830004 -1.3890001
18.377001 -7.704 -0.56400001
18.106001 -7.5240002 -0.55199999
17.9 -8.8000002 -1.399
18.157 -8.8559999 -1.42
17.959999 -8.6899996 -1.4
18.017 -8.474 -1.396
17.729 -8.2709999 -1.369
17.903999 -8.2840004 -1.382
18.062 -8.2880001 -1.393
18.059999 -8.2189999 -1.391
18.541 -6.9629998 -0.55900002
18.559999 -6.9039998 -0.55900002
18.597 -6.8509998 -0.56
18.606001 -6.8210001 -0.56
18.639 -6.7670002 -0.56
18.677 -6.7140002 -0.56099999
18.701 -6.6570001 -0.56099999
18.715 -6.5960002 -0.56099999
18.749001 -6.5409999 -0.56099999
18.767 -6.4819999 -0.56099999
18.794001 -6.4580002 -0.56199998
18.826 -6.4029999 -0.56300002
18.85 -6.3449998 -0.56300002
18.410999 -7.487 -1.393
18.471001 -7.4439998 -1.397
18.51 -7.4260001 -1.399
18.365 -7.3010001 -1.385
18.469999 -7.2750001 -1.392
18.624001 -7.2690001 -1.403
18.742001 -7.2470002 -1.411
18.327 -7.02 -1.373
18.681999 -7.0890002 -1.402
18.656 -7.046 -1.399
18.636999 -6.9720001 -1.395
18.594 -6.8889999 -1.39
18.539 -6.802 -1.383
18.68 -6.7880001 -1.393
18.847 -6.7820001 -1.406
18.729 -6.6729999 -1.3940001
18.738001 -6.6430001 -1.3940001
18.761 -6.585 -1.3940001
18.813 -6.5370002 -1.397
18.809 -6.4689999 -1.395
18.862 -6.421 -1.397
18.891001 -6.3649998 -1.398
18.985001 -6.3299999 -1.405
18.974001 -6.2610002 -1.402
18.929001 -6.2129998 -1.397
18.996 -6.1690001 -1.401
19.063 -6.1240001 -1.405
19.319 -6.1399999 -1.425
17.646 -9.2519999 -1.03
18.08 -8.1440001 -0.792
16.598 -10.54 -1.6059999
18.101999 -8.0860004 -0.792
