# .PCD v0.7 - Point Cloud Data file format
VERSION 0.7
FIELDS x y z
SIZE 4 4 4
TYPE F F F
COUNT 1 1 1
WIDTH 84
HEIGHT 1
VIEWPOINT 0 0 0 1 0 0 0
POINTS 84
DATA ascii
-16.42 -4.349 -0.15099999
-16.211 -4.224 -1.143
-16.183001 -4.2709999 -1.142
-16.224001 -4.0700002 -0.74299997
-16.271 -4.1370001 -0.74599999
-16.275 -4.1919999 -0.74699998
-16.292999 -4.2509999 -0.74900001
-16.417 -4.1300001 -0.237
-16.443001 -4.1919999 -0.23800001
-16.445 -4.2470002 -0.23800001
-16.056 -3.9749999 -0.73199999
-16.469999 -4.3649998 -0.23999999
-16.212999 -4.586 -0.75
-16.209999 -4.6399999 -0.75
-16.284 -4.165 -0.83700001
-16.148001 -3.9679999 -0.63200003
-16.351999 -4.073 -0.64300001
-16.357 -4.1290002 -0.64399999
-16.302999 -4.1700001 -0.64200002
-16.301001 -4.224 -0.64200002
-16.322001 -4.257 -0.64399999
-16.370001 -4.3239999 -0.64700001
-15.977 -4.3299999 -1.528
-16.1 -3.901 -1.0190001
-16.344 -4.2199998 -0.149
-16.379999 -4.1880002 -1.044
-16.298 -4.2210002 -1.039
-16.278999 -4.244 -1.038
-16.469999 -4.1139998 -0.15099999
-16.414 -4.1550002 -0.15000001
-16.371 -4.1719999 -0.149
-16.413 -4.0739999 -0.236
-16.375 -4.2820001 -0.15000001
-16.360001 -4.013 -0.44499999
-16.316 -4.0570002 -0.44400001
-16.341999 -4.118 -0.44600001
-16.368999 -4.152 -0.447
-16.284 -4.303 -0.74900001
-16.372999 -4.263 -0.44800001
-16.406 -4.3260002 -0.44999999
-16.503 -4.408 -0.454
-16.506001 -4.4640002 -0.45500001
-16.546 -4.5310001 -0.45699999
-16.379999 -4.3839998 -0.75599998
-16.079 -4.3169999 -1.329
-16.013 -3.938 -0.93199998
-16.07 -4.0050001 -0.93699998
-15.861 -4.0599999 -0.92400002
-16.226 -4.1789999 -0.95099998
-16.232 -4.2350001 -0.95200002
-16.474001 -4.3099999 -0.23899999
-16.356001 -4.2030001 -0.447
-16.006001 -4.013 -0.81800002
-16.351 -4.0040002 -0.33399999
-16.326 -4.053 -0.33399999
-16.316 -4.0770001 -0.33399999
-16.325001 -4.1339998 -0.33500001
-16.35 -4.1950002 -0.336
-16.356001 -4.2509999 -0.33700001
-16.405001 -4.3189998 -0.33899999
-16.445 -4.3850002 -0.34
-16.52 -4.46 -0.34299999
-15.943 -4.0240002 -0.815
-16.436001 -4.5110002 -0.55400002
-16.344 -4.1399999 -0.030999999
-16.309999 -4.1859999 -0.029999999
-16.295 -4.237 -0.029999999
-16.586 -4.4099998 -0.85900003
-16.613001 -4.2119999 -1.272
-16.573 -4.257 -1.27
-16.316999 -4.2280002 -0.83999997
-16.247 -3.9960001 -0.54100001
-16.316 -4.0669999 -0.54400003
-16.336 -4.1269999 -0.546
-16.315001 -4.1760001 -0.54500002
-16.326 -4.2059999 -0.546
-16.365 -4.2709999 -0.54900002
-16.375 -4.329 -0.55000001
-16.504 -4.473 -0.55699998
-16.141001 -4.2540002 -1.234
-16.423 -4.5630002 -0.55500001
-16.547001 -4.4549999 -0.85699999
-16.316 -4.585 -0.648
-16.281 -3.95 -0.542
