# .PCD v0.7 - Point Cloud Data file format
VERSION 0.7
FIELDS x y z
SIZE 4 4 4
TYPE F F F
COUNT 1 1 1
WIDTH 98
HEIGHT 1
VIEWPOINT 0 0 0 1 0 0 0
POINTS 98
DATA ascii
19.613001 -26.691999 -0.259
20.025 -25.532 -0.83399999
19.844999 -29.358 -0.71899998
19.804001 -29.101 -0.713
19.787001 -28.879999 -0.708
19.726 -28.694 -0.70300001
19.708 -28.476 -0.69800001
19.589001 -28.115999 -0.68900001
19.658001 -28.025999 -0.68800002
19.948 -29.586 -1.1720001
19.903999 -29.322001 -1.1619999
19.872 -29.077999 -1.154
19.767 -28.731001 -1.14
22.780001 -25.158001 -0.27000001
19.790001 -29.184999 -0.53399998
19.747999 -28.927999 -0.52899998
19.757 -28.746 -0.52600002
19.709 -28.483999 -0.52100003
19.664 -28.323999 -0.51800001
19.641001 -28.101 -0.514
19.645 -27.92 -0.51099998
19.615999 -27.693001 -0.50599998
19.582001 -27.462 -0.50199997
19.559 -27.247 -0.498
19.525 -27.02 -0.49399999
19.487 -26.878 -0.491
19.483999 -26.697001 -0.48800001
19.483999 -26.521 -0.48500001
19.443001 -26.292 -0.48100001
19.441999 -26.118999 -0.47799999
19.43 -25.931 -0.47400001
19.433001 -25.766001 -0.472
19.455 -25.712 -0.47099999
19.552999 -25.673 -0.472
19.660999 -25.648001 -0.47299999
19.771 -25.624001 -0.47400001
19.914 -25.642 -0.47600001
19.98 -25.561001 -0.47499999
20.118 -25.572001 -0.477
20.159 -25.541 -0.477
20.277 -25.525 -0.47799999
19.806999 -29.504999 -0.93300003
19.816 -29.318001 -0.92799997
19.750999 -29.115999 -0.28799999
19.726999 -28.886 -0.285
19.743 -28.624001 -0.90899998
19.652 -28.488001 -0.28
19.673 -28.327 -0.278
19.704 -28.181999 -0.27599999
19.705999 -27.997 -0.27399999
19.629999 -27.705 -0.27000001
19.586 -27.459999 -0.26699999
19.566999 -27.252001 -0.26499999
19.507 -27.077999 -0.26199999
19.497999 -26.888 -0.25999999
19.533001 -26.757999 -0.259
19.915001 -25.556999 -0.833
19.625 -26.534 -0.257
19.455 -26.132 -0.25099999
19.434 -25.933001 -0.249
19.379999 -25.777 -0.24699999
19.556 -25.841999 -0.249
19.679001 -25.836 -0.25
19.804001 -25.830999 -0.25099999
19.951 -25.854 -0.252
20.024 -25.780001 -0.252
20.143999 -25.767 -0.25299999
20.200001 -25.754999 -0.25299999
20.277 -25.686001 -0.25299999
20.334999 -25.594 -0.25299999
20.423 -25.540001 -0.25299999
20.483999 -25.452 -0.252
20.605 -25.438999 -0.25299999
20.827 -25.547001 -0.25600001
20.811001 -25.447001 -0.255
21.108999 -25.645 -0.25999999
21.281 -25.688999 -0.26199999
21.374001 -25.638 -0.26199999
21.482 -25.603001 -0.26300001
21.632999 -25.618999 -0.264
21.843 -25.702999 -0.26699999
21.851999 -25.632 -0.26699999
21.791 -25.398001 -0.264
21.856001 -25.313 -0.26300001
22.038 -25.362 -0.26499999
22.096001 -25.268 -0.26499999
22.219 -25.247999 -0.266
22.589001 -25.264999 -0.27000001
22.719999 -25.252001 -0.271
19.774 -29.059 -0.921
22.863001 -25.091 -0.27000001
22.968 -25.049 -0.271
19.753 -28.833 -0.91399997
19.719 -28.68 -0.28200001
19.681999 -28.440001 -0.903
19.829 -29.474001 -1.376
19.812 -29.249001 -1.368
19.792 -29.023001 -1.359
