# .PCD v0.7 - Point Cloud Data file format
VERSION 0.7
FIELDS x y z
SIZE 4 4 4
TYPE F F F
COUNT 1 1 1
WIDTH 93
HEIGHT 1
VIEWPOINT 0 0 0 1 0 0 0
POINTS 93
DATA ascii
-2.7420001 17.591 -0.80400002
-2.7739999 17.614 -0.80500001
-2.826 17.589001 -0.80400002
-2.5439999 17.686001 -0.26100001
-2.595 17.645 -0.25999999
-2.6889999 17.893 -0.26699999
-2.3429999 17.827 -0.48899999
-2.395 17.792 -0.48800001
-2.444 17.733 -0.486
-2.523 17.688999 -0.48500001
-2.5929999 17.780001 -0.48899999
-2.658 17.829 -0.491
-2.6849999 17.632999 -0.484
-2.7449999 17.653999 -0.48500001
-2.802 17.653 -0.48500001
-2.8629999 17.684 -0.48699999
-2.5309999 17.627001 -0.168
-2.5880001 17.631001 -0.169
-2.655 17.773001 -1.123
-2.4419999 17.673 -1.113
-2.493 17.635 -1.1109999
-2.556 17.681 -1.115
-2.6300001 17.797001 -1.124
-2.688 17.923 -0.175
-2.7060001 17.729 -1.12
-2.77 17.778 -1.124
-2.402 17.629999 -1.226
-2.546 17.601 -0.69
-2.608 17.636999 -0.69199997
-2.6570001 17.583 -0.68900001
-2.6819999 17.563 -0.68900001
-2.418 17.695999 -0.90200001
-2.438 17.635 -0.89899999
-2.5 17.672001 -0.90100002
-2.5539999 17.650999 -0.90100002
-2.6099999 17.648001 -0.90100002
-2.6670001 17.653999 -0.90200001
-2.77 17.584 -0.898
-2.835 17.813999 -0.91299999
-2.506 17.566 -1.222
-2.652 17.864 -0.37400001
-2.675 17.634001 -0.366
-2.73 17.743999 -1.239
-2.457 17.768999 -1.562
-2.5109999 17.75 -1.561
-2.6789999 17.733 -1.561
-2.517 17.719999 -0.368
-2.3099999 17.733 -0.90399998
-2.368 17.743 -0.90499997
-2.744 17.598 -0.69099998
-2.806 17.631001 -0.69300002
-2.8599999 17.618 -0.69300002
-2.3829999 17.775999 -0.37
-2.4089999 17.759001 -0.36899999
-2.4489999 17.559999 -1.221
-2.566 17.666 -0.36700001
-2.6489999 17.774 -1.2410001
-2.704 17.756001 -1.24
-2.7360001 17.665001 -0.368
-2.7639999 17.662001 -0.368
-2.822 17.667 -0.368
-2.348 17.808001 -0.59500003
-2.402 17.781 -0.59399998
-2.497 17.650999 -0.58899999
-2.549 17.618999 -0.588
-2.6059999 17.816999 -0.597
-2.6340001 17.618999 -0.58899999
-2.6919999 17.625999 -0.58899999
-2.7539999 17.665001 -0.59200001
-2.8150001 17.688 -0.59299999
-2.872 17.688999 -0.59299999
-2.46 17.705 -1.442
-2.5109999 17.664 -1.439
-2.6589999 17.702999 -1.444
-2.721 17.74 -1.449
-2.6389999 17.726 -1.34
-2.697 17.728001 -1.341
-2.7590001 17.761 -1.344
-2.3800001 17.629 -1.022
-2.431 17.587999 -1.0190001
-2.4849999 17.573999 -1.0190001
-2.5220001 17.631001 -1.023
-2.585 17.681 -1.027
-2.638 17.657 -1.026
-2.697 17.67 -1.028
-2.7409999 17.587999 -1.023
-2.809 17.658001 -1.028
-2.3469999 17.809 -0.81300002
-2.398 17.764 -0.81099999
-2.5220001 17.636 -0.80400002
-2.5769999 17.624001 -0.80400002
-2.671 17.874001 -0.81900001
-2.6800001 17.556 -0.801
