# .PCD v0.7 - Point Cloud Data file format
VERSION 0.7
FIELDS x y z
SIZE 4 4 4
TYPE F F F
COUNT 1 1 1
WIDTH 655
HEIGHT 1
VIEWPOINT 0 0 0 1 0 0 0
POINTS 655
DATA ascii
17.729 -13.37 -0.50599998
19.073 -23.105 -0.57700002
19.143 -23.042 -0.57599998
19.101999 -22.847 -0.57200003
19.098 -22.695999 -0.56900001
19.143 -22.606001 -0.56800002
19.096001 -22.478001 -0.56400001
19.136999 -22.382999 -0.56300002
19.061001 -22.153 -0.55699998
18.979 -21.92 -0.551
18.909 -21.700001 -0.546
18.91 -21.563999 -0.54299998
18.926001 -21.445999 -0.54100001
18.844999 -21.288 -0.537
18.816 -21.121 -0.53299999
18.832001 -21.004999 -0.53100002
18.837 -20.879 -0.52899998
18.806999 -20.715 -0.52499998
18.805 -20.582001 -0.52200001
18.766001 -20.410999 -0.51800001
18.774 -20.355 -0.51700002
18.733999 -20.184999 -0.51300001
18.754999 -20.080999 -0.51200002
18.783001 -19.983999 -0.50999999
18.677 -19.747999 -0.50400001
18.659 -19.605 -0.50099999
18.667999 -19.492001 -0.49900001
18.691999 -19.455 -0.49900001
18.639 -19.278 -0.495
18.591 -19.108 -0.49000001
18.624001 -19.021999 -0.48899999
18.573 -18.851 -0.48500001
18.549 -18.709 -0.48199999
18.603001 -18.646999 -0.48199999
18.601 -18.586 -0.48100001
18.674 -18.542 -0.48199999
18.698999 -18.451 -0.47999999
18.73 -18.365999 -0.479
18.693001 -18.215 -0.47600001
19.018999 -18.416 -0.486
19.032 -18.313 -0.484
19.188999 -18.406 -0.48899999
16.4 -17.429001 -1.562
16.448 -17.370001 -1.561
16.485001 -17.355 -1.562
16.548 -17.312 -1.563
16.610001 -17.268 -1.564
16.664 -17.216 -1.564
16.698999 -17.143 -1.562
16.740999 -17.079 -1.561
16.784 -17.014999 -1.5599999
16.808001 -16.986 -1.5599999
16.860001 -16.931999 -1.559
16.903999 -16.870001 -1.558
16.959999 -16.82 -1.559
17.003 -16.757 -1.558
17.044001 -16.691999 -1.557
17.115 -16.657 -1.558
17.152 -16.641001 -1.5599999
17.222 -16.603001 -1.561
17.274 -16.549 -1.561
17.316999 -16.487 -1.561
17.372999 -16.436001 -1.561
17.42 -16.378 -1.561
17.478001 -16.327999 -1.561
17.493999 -16.292999 -1.5599999
17.556 -16.247 -1.561
17.583 -16.17 -1.559
17.628 -16.108999 -1.558
17.660999 -16.038 -1.557
17.639 -15.917 -1.549
17.625999 -15.806 -1.543
17.657 -15.783 -1.544
17.698999 -15.721 -1.543
17.618 -15.551 -1.53
17.698 -15.523 -1.533
17.733 -15.455 -1.5319999
17.775999 -15.394 -1.531
17.854 -15.364 -1.534
17.815001 -15.282 -1.528
17.802999 -15.176 -1.522
17.858999 -15.126 -1.523
17.856001 -15.027 -1.518
17.827999 -14.909 -1.511
17.893999 -14.869 -1.513
17.878 -14.808 -1.5089999
17.691 -14.561 -1.487
17.719 -14.49 -1.485
18.004 -14.629 -1.508
18.013 -14.542 -1.505
17.284 -13.866 -1.431
17.990999 -14.339 -1.494
17.98 -14.238 -1.489
17.951 -14.169 -1.484
17.927 -14.06 -1.477
17.905001 -13.952 -1.471
17.806 -13.785 -1.4579999
17.801001 -13.692 -1.454
17.854 -13.644 -1.454
17.846001 -13.549 -1.45
17.819 -13.485 -1.4450001
17.872999 -13.437 -1.446
17.832001 -13.319 -1.439
19.201 -24.013 -0.44
19.225 -23.888 -0.43799999
19.200001 -23.705 -0.435
19.201 -23.554001 -0.43200001
19.176001 -23.372999 -0.42899999
19.218 -23.349001 -0.42899999
19.195999 -23.173 -0.426
19.118 -22.931999 -0.421
19.156 -22.830999 -0.41999999
19.101999 -22.621 -0.41600001
19.096001 -22.471001 -0.41299999
19.087999 -22.318001 -0.41100001
19.047001 -22.200001 -0.40799999
19.058001 -22.072001 -0.40599999
18.944 -21.801001 -0.40000001
18.969 -21.691 -0.39899999
18.926001 -21.506001 -0.396
18.861 -21.296 -0.391
18.795 -21.087 -0.38699999
18.819 -21.047001 -0.38699999
18.858 -20.958 -0.38600001
18.834 -20.799999 -0.38299999
19.002001 -20.853001 -0.38600001
18.914 -20.625999 -0.382
18.882 -20.461 -0.37900001
18.889999 -20.341 -0.377
18.843 -20.226999 -0.375
18.790001 -20.042999 -0.37099999
18.857 -19.989 -0.37099999
18.879999 -19.886999 -0.37
18.761999 -19.638 -0.36399999
15.306 -16.663 -1.614
18.566 -19.01 -0.352
18.613001 -18.938999 -0.352
15.322 -16.575001 -1.61
15.367 -16.518999 -1.609
15.389 -16.438999 -1.6059999
15.441 -16.389999 -1.6059999
15.466 -16.313999 -1.603
15.515 -16.263 -1.602
15.521 -16.218 -1.6
15.559 -16.156 -1.599
15.595 -16.091999 -1.597
15.661 -16.058001 -1.599
15.704 -16.002001 -1.598
15.749 -15.947 -1.597
15.787 -15.886 -1.596
15.791 -15.84 -1.5930001
15.852 -15.802 -1.595
15.893 -15.743 -1.594
15.934 -15.685 -1.5930001
15.978 -15.629 -1.592
16.073999 -15.527 -1.592
16.947001 -18.792 -1.539
16.968 -18.757 -1.538
17.007 -18.681 -1.536
17.048 -18.608 -1.534
17.084999 -18.531 -1.5319999
17.131001 -18.464001 -1.531
17.209 -18.431999 -1.533
17.278 -18.389999 -1.534
17.302999 -18.358 -1.534
17.347 -18.289 -1.5319999
17.417999 -18.249001 -1.534
17.479 -18.198999 -1.534
17.540001 -18.148001 -1.534
17.622 -18.118999 -1.5369999
17.650999 -18.035 -1.534
17.639999 -17.966999 -1.53
17.698 -17.913 -1.53
17.76 -17.863001 -1.531
17.813 -17.804001 -1.531
17.851 -17.73 -1.529
17.905001 -17.672001 -1.529
17.938 -17.593 -1.527
17.948999 -17.549999 -1.525
17.983999 -17.474001 -1.523
17.979 -17.358999 -1.517
18.038 -17.306999 -1.518
18.086 -17.243999 -1.517
18.106001 -17.155001 -1.5140001
18.106001 -17.047001 -1.5089999
18.101 -16.988001 -1.506
17.941999 -16.733999 -1.4859999
17.792999 -16.49 -1.467
17.909 -16.493999 -1.473
17.923 -16.402 -1.469
17.988001 -16.358 -1.471
17.983 -16.25 -1.465
18.077999 -16.285 -1.472
18.141001 -16.239 -1.473
17.986 -15.998 -1.454
18.042 -15.947 -1.455
17.982 -15.793 -1.444
18.003 -15.711 -1.442
17.997999 -15.608 -1.437
18.076 -15.626 -1.442
18.027 -15.485 -1.433
17.917999 -15.293 -1.419
17.929001 -15.206 -1.415
17.937 -15.116 -1.4119999
17.91 -14.997 -1.405
17.938999 -14.925 -1.403
17.898001 -14.843 -1.398
17.785999 -14.656 -1.3839999
17.673 -14.47 -1.369
17.750999 -14.441 -1.372
17.811001 -14.397 -1.374
17.816 -14.309 -1.37
17.916 -14.296 -1.375
17.74 -14.11 -1.357
17.910999 -14.155 -1.369
17.927 -14.076 -1.3660001
17.913 -13.974 -1.3609999
17.908001 -13.88 -1.357
17.927999 -13.806 -1.355
17.955999 -13.782 -1.355
17.947001 -13.686 -1.351
17.937 -13.501 -1.342
17.917 -13.398 -1.337
15.066 -16.768 -1.608
16.466999 -14.935 -1.5829999
15.128 -16.73 -1.609
16.965 -14.351 -1.582
15.19 -16.693001 -1.61
15.251 -16.653999 -1.6109999
18.486 -20.587999 -1.5089999
18.556 -20.535999 -1.5089999
18.603001 -20.458 -1.508
18.631001 -20.360001 -1.5039999
18.669001 -20.273001 -1.502
18.673 -20.15 -1.497
18.652 -20.000999 -1.489
18.649 -19.934999 -1.4859999
18.577 -19.733999 -1.474
18.635 -19.671 -1.473
18.621 -19.533001 -1.467
18.605 -19.393999 -1.46
18.591999 -19.26 -1.4529999
18.587 -19.134001 -1.447
18.540001 -19.025999 -1.441
18.530001 -18.896 -1.434
18.518999 -18.767 -1.428
18.493999 -18.624001 -1.421
18.489 -18.502001 -1.415
18.493 -18.391001 -1.411
18.472 -18.254999 -1.404
18.433001 -18.159 -1.398
18.422001 -18.035999 -1.392
18.409 -17.91 -1.386
18.403 -17.792 -1.381
18.389999 -17.667999 -1.375
18.372 -17.540001 -1.369
18.360001 -17.419001 -1.363
18.294001 -17.302 -1.355
18.285 -17.184999 -1.35
18.177999 -16.976999 -1.336
18.282 -16.968 -1.34
18.271 -16.851 -1.335
18.268999 -16.743 -1.33
18.218 -16.591999 -1.322
18.143999 -16.472 -1.313
17.954 -16.197001 -1.293
18.006001 -16.142 -1.293
18.094999 -16.120001 -1.296
18.077 -16.002001 -1.291
18.118 -15.938 -1.29
18.198 -15.907 -1.2920001
18.152 -15.817 -1.2869999
18.072001 -15.647 -1.276
18.205 -15.662 -1.283
18.261 -15.611 -1.283
18.211 -15.47 -1.275
18.058001 -15.243 -1.2589999
18.177999 -15.246 -1.265
17.943001 -15.002 -1.244
17.993999 -14.949 -1.244
17.975 -14.838 -1.239
17.750999 -14.56 -1.2180001
17.698 -14.424 -1.21
17.618999 -14.267 -1.2
17.802 -14.323 -1.211
17.884001 -14.343 -1.215
17.877001 -14.245 -1.211
17.936001 -14.2 -1.212
18.054001 -14.202 -1.2180001
18.084999 -14.134 -1.217
18.112 -14.064 -1.216
18.134001 -13.99 -1.214
17.934 -13.791 -1.197
18.055 -13.794 -1.2029999
18.030001 -13.685 -1.198
17.917999 -13.512 -1.186
18.16 -13.605 -1.201
17.962 -13.37 -1.182
16.125 -17.854 -1.571
16.157 -17.775999 -1.569
16.173 -17.738001 -1.567
16.200001 -17.656 -1.564
16.254 -17.604 -1.564
16.297001 -17.539 -1.563
16.348 -17.483999 -1.562
18.782 -21.164 -1.397
18.761 -21.006001 -1.39
18.754999 -20.867001 -1.383
18.743999 -20.724001 -1.377
18.722 -20.569 -1.37
18.708 -20.424 -1.363
18.667 -20.315001 -1.357
18.659 -20.179001 -1.351
18.66 -20.052999 -1.346
18.646999 -19.912001 -1.339
18.66 -19.801001 -1.335
18.677999 -19.695999 -1.332
18.688999 -19.584 -1.3279999
18.777 -19.615 -1.332
18.945999 -19.667 -1.341
19.108999 -19.589001 -1.344
18.908001 -19.261 -1.323
18.677 -18.905001 -1.3
18.576 -18.743999 -1.289
18.591 -18.642 -1.286
18.639 -18.573 -1.285
18.648001 -18.466 -1.281
18.813 -18.511999 -1.289
18.797001 -18.379999 -1.283
18.844999 -18.025999 -1.272
19.202 -18.253 -1.295
18.518 -17.490999 -1.237
18.465 -17.332001 -1.229
18.232 -17.004999 -1.207
18.257999 -16.922001 -1.205
18.226999 -16.84 -1.2
18.121 -16.636999 -1.188
18.202999 -16.607 -1.1900001
18.216999 -16.514999 -1.187
18.068001 -16.277 -1.1720001
18.197001 -16.289 -1.178
18.160999 -16.155001 -1.171
17.993999 -15.955 -1.1569999
17.962 -15.826 -1.151
18.27 -15.996 -1.17
18.341999 -15.958 -1.1720001
18.254999 -15.781 -1.161
18.143 -15.585 -1.149
18.16 -15.5 -1.147
18.122 -15.419 -1.142
18.129999 -15.23 -1.136
18.014 -15.036 -1.124
17.985001 -14.917 -1.118
18.08 -14.899 -1.122
18.070999 -14.797 -1.118
17.937 -14.64 -1.1059999
17.910999 -14.525 -1.101
17.547001 -14.138 -1.071
17.708 -14.176 -1.08
17.780001 -14.143 -1.082
17.886 -14.135 -1.086
18.135 -14.287 -1.102
18.045 -14.124 -1.0930001
17.968 -13.972 -1.084
17.936001 -13.857 -1.079
18.09 -13.886 -1.086
17.934999 -13.677 -1.072
17.858999 -13.53 -1.064
18.044001 -13.626 -1.076
17.813999 -13.364 -1.056
17.99 -13.409 -1.066
18.961 -21.724001 -1.244
18.926001 -21.615999 -1.239
18.908001 -21.459 -1.233
18.868999 -21.280001 -1.225
18.872 -21.15 -1.22
18.896999 -21.044001 -1.217
18.892 -20.906 -1.211
18.851 -20.73 -1.2029999
18.847 -20.660999 -1.201
18.865 -20.549999 -1.197
18.787001 -20.337 -1.187
18.791 -20.212999 -1.182
18.767 -20.061001 -1.176
18.759001 -19.926001 -1.171
18.771999 -19.815001 -1.1670001
18.818001 -19.801001 -1.168
18.631001 -19.239 -1.141
18.552999 -19.039 -1.131
18.495001 -18.861 -1.123
18.525999 -18.774 -1.1210001
18.561001 -18.750999 -1.1210001
18.514 -18.586 -1.114
18.492001 -18.448 -1.108
18.528 -18.368 -1.107
18.629999 -18.353001 -1.11
18.771 -18.375999 -1.115
18.864 -18.351999 -1.118
18.372 -17.375999 -1.066
18.285 -17.184999 -1.056
18.169001 -17.023001 -1.0470001
18.221001 -16.964001 -1.0470001
18.311001 -16.834999 -1.045
18.181999 -16.611 -1.033
18.165001 -16.490999 -1.028
18.330999 -16.433001 -1.033
18.367001 -16.413 -1.033
18.219999 -16.179001 -1.02
18.275 -16.125999 -1.02
18.212999 -15.97 -1.013
18.077 -15.751 -1.0
18.033001 -15.613 -0.99400002
18.087 -15.561 -0.995
18.082001 -15.507 -0.99299997
18.274 -15.572 -1.002
18.193001 -15.405 -0.99400002
18.266001 -15.368 -0.995
18.302999 -15.302 -0.99400002
18.313 -15.213 -0.99199998
18.063 -14.91 -0.97299999
18.021 -14.828 -0.96799999
17.959999 -14.683 -0.96100003
17.917 -14.555 -0.95599997
17.905001 -14.452 -0.95200002
17.766001 -14.249 -0.94
17.702 -14.106 -0.93300003
17.976 -14.232 -0.94800001
18.025 -14.225 -0.949
18.009001 -14.12 -0.94599998
17.972 -14.001 -0.94
17.993999 -13.927 -0.93900001
18.055 -13.884 -0.94
18.066999 -13.803 -0.93800002
18.082001 -13.725 -0.93599999
18.033001 -13.643 -0.93199998
17.782 -13.366 -0.91299999
17.82 -13.308 -0.91299999
18.093 -13.423 -0.92799997
16.372 -15.181 -1.59
16.375 -15.136 -1.5880001
16.406 -15.07 -1.586
19.011 -22.110001 -1.0930001
18.981001 -21.934999 -1.087
18.957001 -21.837 -1.0829999
18.962999 -21.707001 -1.0779999
18.898001 -21.496 -1.069
18.881001 -21.34 -1.064
18.858999 -21.181 -1.058
18.856001 -21.044001 -1.053
18.853001 -20.907 -1.049
18.851999 -20.841 -1.046
18.797001 -20.648001 -1.038
18.761999 -20.48 -1.0319999
18.764 -20.225 -1.023
18.743 -20.076 -1.018
18.737 -19.944 -1.0140001
18.693001 -19.834 -1.0089999
18.635 -19.402 -0.99299997
18.628 -19.273001 -0.98900002
18.568001 -19.091 -0.98100001
18.584 -18.987 -0.97799999
18.52 -18.862 -0.972
18.481001 -18.704 -0.96600002
18.499001 -18.605 -0.963
18.551001 -18.541 -0.963
18.547001 -18.421 -0.95899999
18.594 -18.351 -0.958
18.556999 -18.200001 -0.95200002
18.750999 -18.333 -0.963
18.896 -18.358999 -0.96799999
18.393999 -17.646999 -0.93000001
18.452999 -17.591999 -0.93000001
18.440001 -17.469 -0.926
18.48 -17.398001 -0.92500001
18.106001 -16.990999 -0.90100002
18.187 -16.959999 -0.90200001
18.129999 -16.801001 -0.89600003
18.299 -16.851 -0.903
18.396 -16.834 -0.90499997
18.33 -16.667999 -0.898
18.384001 -16.612 -0.898
18.542 -16.702 -0.90600002
18.33 -16.406 -0.89099997
18.275 -16.254 -0.884
18.289 -16.164 -0.88200003
18.142 -15.932 -0.87
18.207001 -15.888 -0.87099999
18.15 -15.788 -0.866
18.225 -15.753 -0.86799997
18.166 -15.602 -0.861
18.285999 -15.606 -0.866
18.219 -15.45 -0.85900003
18.266001 -15.392 -0.85900003
18.261 -15.289 -0.85600001
18.33 -15.25 -0.85699999
18.247999 -15.133 -0.85100001
18.259001 -15.045 -0.84899998
18.152 -14.861 -0.83999997
18.214001 -14.816 -0.84100002
17.983999 -14.535 -0.82499999
18.052999 -14.497 -0.82599998
17.961 -14.331 -0.81800002
17.806999 -14.162 -0.80800003
17.903999 -14.148 -0.81099999
18.114 -14.221 -0.82099998
18.017 -14.054 -0.81300002
17.914 -13.883 -0.80400002
18.042999 -13.893 -0.80900002
18.013 -13.78 -0.80500001
17.966999 -13.699 -0.801
17.863001 -13.532 -0.79299998
17.969999 -13.524 -0.79699999
17.917999 -13.396 -0.79100001
17.886 -13.285 -0.787
16.563 -14.834 -1.5829999
16.593 -14.814 -1.584
19.038 -22.393 -0.92900002
19.042999 -22.257 -0.92500001
19.076 -22.155001 -0.92299998
18.986 -21.98 -0.91600001
18.959 -21.809999 -0.91000003
18.955999 -21.669001 -0.90600002
18.937 -21.511 -0.90100002
18.914 -21.349001 -0.89600003
18.888 -21.184999 -0.88999999
18.870001 -21.032 -0.88499999
18.841999 -20.934 -0.88200003
18.820999 -20.780001 -0.87699997
18.826 -20.655001 -0.87300003
18.754999 -20.448 -0.866
18.757999 -20.323 -0.86199999
18.788 -20.228001 -0.86000001
18.766001 -20.077 -0.85500002
18.711 -19.955 -0.85100001
18.672001 -19.789 -0.84500003
18.673 -19.667 -0.84100002
18.653 -19.523001 -0.83700001
18.594 -19.339001 -0.82999998
18.649 -19.274 -0.82999998
18.683001 -19.188999 -0.82800001
18.568001 -19.011 -0.81999999
18.528 -18.851 -0.815
18.52 -18.725 -0.81099999
18.552999 -18.641001 -0.81
18.563 -18.535 -0.80699998
18.594 -18.450001 -0.80599999
18.624001 -18.363001 -0.80400002
18.570999 -18.254 -0.80000001
18.583 -18.150999 -0.79699999
18.719 -18.169001 -0.80199999
18.976999 -18.304001 -0.81199998
18.594 -17.823 -0.78899997
18.479 -17.601999 -0.77999997
18.490999 -17.503 -0.778
18.427 -17.386999 -0.773
18.417999 -17.271 -0.76899999
18.370001 -17.117001 -0.764
18.364 -17.004 -0.76099998
18.402 -16.933001 -0.75999999
18.408001 -16.832001 -0.75800002
18.434 -16.75 -0.75599998
18.371 -16.639999 -0.75199997
18.346001 -16.513 -0.74800003
18.429001 -16.483 -0.74900001
18.363001 -16.32 -0.74299997
18.671 -16.489 -0.75599998
18.351999 -16.106001 -0.73699999
18.346001 -15.998 -0.73400003
18.523001 -16.101999 -0.74199998
18.305 -15.712 -0.72600001
16.024 -15.576 -1.592
18.098 -15.339 -0.71100003
16.091 -15.495 -1.591
16.138 -15.443 -1.591
16.197001 -15.402 -1.592
16.253 -15.358 -1.5930001
16.291 -15.297 -1.592
16.330999 -15.239 -1.591
18.045 -14.671 -0.69300002
18.176001 -14.684 -0.69700003
18.021999 -14.512 -0.68800002
18.152 -14.523 -0.69199997
18.423 -14.645 -0.70300001
18.351 -14.494 -0.69700003
18.021999 -14.143 -0.67900002
18.000999 -14.036 -0.676
16.625999 -14.749 -1.582
16.691 -14.714 -1.584
16.733 -14.658 -1.584
16.759001 -14.588 -1.582
16.809999 -14.539 -1.582
16.851 -14.483 -1.582
16.892 -14.426 -1.581
16.926001 -14.409 -1.582
17.823999 -13.149 -0.64999998
17.0 -14.289 -1.581
17.023001 -14.217 -1.5779999
17.063 -14.16 -1.5779999
17.094 -14.095 -1.576
17.139 -14.042 -1.577
17.158001 -14.013 -1.576
17.17 -13.932 -1.573
17.229 -13.891 -1.575
17.263 -13.829 -1.574
17.271999 -13.748 -1.5700001
17.33 -13.704 -1.572
17.334999 -13.62 -1.568
17.287001 -13.539 -1.561
17.312 -13.471 -1.559
17.379999 -13.436 -1.561
17.378 -13.347 -1.557
17.405001 -13.282 -1.556
17.301001 -13.116 -1.541
17.424999 -13.124 -1.549
17.488001 -13.129 -1.553
16.431999 -14.998 -1.584
16.5 -14.872 -1.581
19.025 -22.743 -0.745
18.979 -22.544001 -0.73900002
19.033001 -22.465 -0.73799998
19.004 -22.288 -0.73299998
18.966999 -22.174 -0.73000002
18.917 -21.975 -0.72399998
18.927 -21.847 -0.72100002
18.909 -21.688 -0.71700001
18.919001 -21.563 -0.71399999
18.83 -21.325001 -0.70599997
18.816999 -21.176001 -0.70200002
18.792 -21.08 -0.69999999
18.780001 -20.934999 -0.69599998
18.750999 -20.77 -0.69099998
18.771999 -20.662001 -0.68900001
18.759001 -20.518 -0.685
18.738001 -20.365999 -0.68099999
18.691999 -20.188 -0.676
18.653999 -20.084 -0.67299998
18.68 -19.986 -0.671
18.656 -19.834 -0.667
18.604 -19.653999 -0.662
18.577 -19.503 -0.65799999
18.622 -19.427 -0.65700001
18.663 -19.348 -0.65600002
18.584 -19.205999 -0.65100002
18.587 -19.087999 -0.648
18.517 -18.896999 -0.64200002
18.506001 -18.767 -0.639
18.563999 -18.708 -0.639
18.552 -18.579 -0.63599998
18.500999 -18.410999 -0.63099998
18.597 -18.448999 -0.634
18.639 -18.375 -0.63300002
18.632 -18.253 -0.63
18.704 -18.208 -0.63099998
18.882 -18.266001 -0.63599998
18.92 -18.188999 -0.63599998
