# .PCD v0.7 - Point Cloud Data file format
VERSION 0.7
FIELDS x y z
SIZE 4 4 4
TYPE F F F
COUNT 1 1 1
WIDTH 351
HEIGHT 1
VIEWPOINT 0 0 0 1 0 0 0
POINTS 351
DATA ascii
4.0689998 -9.2340002 -0.057999998
4.0879998 -9.2370005 -0.059
3.914 -9.4189997 -0.55000001
3.9000001 -9.3030005 -0.542
3.905 -9.2360001 -0.537
3.927 -9.2049999 -0.53600001
3.951 -9.1820002 -0.53500003
3.98 -9.1700001 -0.53500003
3.99 -9.1540003 -0.53399998
4.0159998 -9.1359997 -0.53399998
4.0300002 -9.0909996 -0.53100002
4.053 -9.0649996 -0.52999997
4.0749998 -9.0380001 -0.52899998
4.098 -9.0120001 -0.528
4.1729999 -9.1029997 -0.53600001
4.2329998 -9.1940002 -0.54400003
3.776 -9.4309998 -1.048
3.806 -9.4209995 -1.048
3.79 -9.2969999 -1.033
3.777 -9.2250004 -1.025
3.7950001 -9.1879997 -1.021
3.8329999 -9.1960001 -1.024
3.8800001 -9.2279997 -1.03
3.9100001 -9.217 -1.03
3.924 -9.1700001 -1.025
3.944 -9.1379995 -1.023
3.9430001 -9.0970001 -1.018
3.9809999 -9.1059999 -1.021
4.0159998 -9.1070004 -1.023
4.0469999 -9.1009998 -1.024
4.0840001 -9.1059999 -1.026
4.1430001 -9.1599998 -1.035
4.1690001 -9.1400003 -1.034
4.1220002 -9.0019999 -1.016
3.7739999 -9.3380003 -0.917
3.8169999 -9.3590002 -0.921
3.8139999 -9.2700005 -0.912
3.816 -9.1940002 -0.90399998
3.8469999 -9.1859999 -0.90499997
3.875 -9.1719999 -0.90399998
3.904 -9.1590004 -0.90399998
3.9130001 -9.1400003 -0.903
3.9219999 -9.0839996 -0.898
3.9579999 -9.0880003 -0.89999998
3.9990001 -9.1029997 -0.903
4.0089998 -9.0509996 -0.898
4.0300002 -9.0220003 -0.89600003
4.0560002 -9.0039997 -0.89499998
4.1079998 -9.0790005 -0.90499997
4.1440001 -9.0839996 -0.90799999
4.1659999 -9.0559998 -0.90600002
3.78 -9.2410002 -1.46
3.8099999 -9.2329998 -1.461
3.8329999 -9.2060003 -1.4579999
3.845 -9.1940002 -1.457
3.865 -9.1619997 -1.454
3.901 -9.1660004 -1.457
3.9300001 -9.1540003 -1.457
3.9649999 -9.1560001 -1.459
4.0159998 -9.1940002 -1.4680001
4.1300001 -9.3730001 -1.501
4.1849999 -9.4569998 -1.517
4.2160001 -9.4469995 -1.518
4.2290001 -9.3959999 -1.511
4.2119999 -9.2819996 -1.493
4.1880002 -9.1520004 -1.473
4.211 -9.1280003 -1.471
4.2519999 -9.1400003 -1.475
4.289 -9.1820002 -1.484
4.3330002 -9.1999998 -1.49
4.3569999 -9.1780005 -1.488
4.3979998 -9.1890001 -1.492
4.4289999 -9.1789999 -1.493
4.4759998 -9.2019997 -1.5
4.5159998 -9.2110004 -1.5039999
3.8940001 -9.3120003 -0.49200001
3.8989999 -9.2419996 -0.48800001
3.902 -9.1669998 -0.48300001
3.9289999 -9.151 -0.48300001
3.95 -9.1210003 -0.48199999
3.9630001 -9.1129999 -0.48199999
3.977 -9.0649996 -0.479
4.0170002 -9.0799999 -0.48100001
4.0250001 -9.0200005 -0.477
4.053 -9.0080004 -0.477
4.0760002 -8.9840002 -0.477
4.1160002 -8.9960003 -0.479
4.1589999 -9.052 -0.48300001
4.1880002 -9.04 -0.48300001
3.888 -9.0769997 -0.70700002
3.665 -9.2670002 -1.2130001
3.8169999 -9.2679996 -1.221
3.8469999 -9.2580004 -1.221
3.875 -9.2419996 -1.22
3.8959999 -9.2110004 -1.2180001
3.9000001 -9.1409998 -1.209
3.9330001 -9.1370001 -1.21
3.961 -9.125 -1.21
3.99 -9.1520004 -1.215
4.0300002 -9.1639996 -1.219
4.0619998 -9.1610003 -1.22
4.1009998 -9.1700001 -1.224
4.1350002 -9.1689997 -1.226
4.1900001 -9.2139997 -1.235
4.23 -9.224 -1.238
4.2550001 -9.2410002 -1.242
4.2930002 -9.2469997 -1.245
3.8510001 -9.526 -0.74400002
3.8770001 -9.5050001 -0.74299997
3.9100001 -9.5 -0.74299997
3.905 -9.4029999 -0.73500001
3.8740001 -9.2440004 -0.72000003
3.8800001 -9.1780005 -0.71499997
3.905 -9.1569996 -0.71399999
3.9649999 -9.3319998 -0.42500001
3.885 -8.9919996 -0.699
3.9779999 -9.243 -0.41999999
3.9909999 -9.1929998 -0.417
4.0139999 -9.1669998 -0.41600001
4.0609999 -9.0080004 -0.70700002
4.0489998 -9.0909996 -0.41299999
4.0809999 -8.9379997 -0.70200002
4.1830001 -9.0880003 -0.71899998
4.1149998 -9.0480003 -0.412
4.2340002 -9.2320004 -0.426
3.7179999 -9.1999998 -1.548
3.734 -9.1960001 -1.549
3.7709999 -9.2060003 -1.553
3.8 -9.1929998 -1.552
3.8340001 -9.1949997 -1.5549999
3.8610001 -9.1780005 -1.554
3.8970001 -9.1820002 -1.557
3.924 -9.1660004 -1.556
3.9530001 -9.1940002 -1.563
3.99 -9.1999998 -1.566
4.132 -9.448 -1.614
4.2020001 -9.1719999 -1.576
4.2270002 -9.1499996 -1.575
4.2620001 -9.151 -1.577
4.2940001 -9.1450005 -1.579
4.3930001 -9.2790003 -1.6059999
4.4689999 -9.3649998 -1.625
4.4689999 -9.3260002 -1.619
4.5089998 -9.335 -1.623
4.0029998 -9.2849998 -0.36899999
4.006 -9.2119999 -0.36500001
4.0370002 -9.2049999 -0.36500001
4.066 -9.1899996 -0.36500001
4.0570002 -9.1309996 -0.36199999
4.0739999 -9.0930004 -0.36000001
4.0960002 -9.0649996 -0.36000001
4.2399998 -9.309 -0.375
4.1729999 -9.0830002 -0.36199999
3.737 -9.427 -1.098
3.7679999 -9.4189997 -1.098
3.7539999 -9.2989998 -1.0829999
3.7449999 -9.191 -1.0700001
3.7780001 -9.1899996 -1.072
3.8069999 -9.1780005 -1.072
3.849 -9.1990004 -1.076
3.869 -9.2060003 -1.0779999
3.8929999 -9.1809998 -1.076
3.8970001 -9.1110001 -1.068
3.9189999 -9.0839996 -1.066
3.9530001 -9.0839996 -1.068
3.994 -9.099 -1.072
4.0300002 -9.1040001 -1.074
4.0370002 -9.0819998 -1.072
4.0890002 -9.1219997 -1.079
4.1389999 -9.1560001 -1.086
4.1680002 -9.1429996 -1.086
4.184 -9.1020002 -1.082
3.891 -9.2959995 -1.16
4.0100002 -9.165 -0.116
4.04 -9.1560001 -0.116
3.927 -9.1800003 -1.148
3.95 -9.1529999 -1.145
4.2129998 -9.3500004 -0.124
4.138 -9.1890001 -1.16
3.6370001 -9.4060001 -1.275
3.826 -9.283 -1.2690001
3.8540001 -9.2679996 -1.268
3.878 -9.2449999 -1.266
3.8989999 -9.2139997 -1.263
3.9030001 -9.1420002 -1.2539999
3.934 -9.1350002 -1.255
3.9630001 -9.1239996 -1.255
3.993 -9.1540003 -1.261
4.0250001 -9.1490002 -1.262
4.0619998 -9.1540003 -1.265
4.1059999 -9.1759996 -1.27
4.138 -9.1680002 -1.271
4.1820002 -9.1890001 -1.277
4.2470002 -9.2539997 -1.289
4.2639999 -9.2539997 -1.29
4.3130002 -9.2819996 -1.2970001
4.3909998 -9.3719997 -1.314
3.7639999 -9.3479996 -0.98000002
3.7950001 -9.342 -0.98100001
3.7920001 -9.2489996 -0.97000003
3.773 -9.1619997 -0.95999998
3.8069999 -9.1610003 -0.96200001
3.836 -9.151 -0.96200001
3.885 -9.1859999 -0.96799999
3.8069999 -9.3509998 -0.85399997
3.8 -9.2510004 -0.84399998
3.948 -9.0950003 -0.96100003
3.951 -9.0629997 -0.958
3.848 -9.1210003 -0.833
4.0139999 -9.052 -0.95999998
3.846 -8.9960003 -0.82099998
3.8670001 -8.9680004 -0.81900001
4.1259999 -9.0740004 -0.96700001
4.2540002 -9.2799997 -0.995
3.9579999 -8.9469995 -0.82099998
4.007 -8.9799995 -0.82599998
3.902 -9.573 -0.68800002
3.9130001 -9.5150003 -0.68300003
3.931 -9.4729996 -0.68099999
4.2309999 -9.2110004 -0.85799998
4.0549998 -9.2200003 -0.30199999
4.0669999 -9.1709995 -0.30000001
4.0939999 -9.1549997 -0.30000001
4.1370001 -9.1730003 -0.30199999
3.915 -8.9949999 -0.64200002
3.9419999 -8.9799995 -0.64200002
3.9760001 -8.9809999 -0.64300001
3.99 -8.9750004 -0.64300001
4.0240002 -8.9750004 -0.64399999
4.085 -9.0349998 -0.65100002
4.0760002 -8.9399996 -0.64399999
4.0949998 -8.9069996 -0.64200002
4.2129998 -9.0880003 -0.66000003
3.845 -9.5310001 -0.87199998
3.9070001 -9.158 -0.96600002
3.9100001 -9.0869999 -0.958
3.799 -9.165 -0.83499998
3.8269999 -9.151 -0.83499998
3.99 -9.0760002 -0.96100003
3.8729999 -9.1000004 -0.83200002
4.0440001 -9.0430002 -0.95999998
4.0949998 -9.0810003 -0.96600002
3.8940001 -8.9540005 -0.81900001
3.9260001 -8.9510002 -0.81999999
4.04 -8.9790001 -0.82700002
4.0869999 -9.0469999 -0.83600003
4.0019999 -9.217 -0.301
3.881 -9.2709999 -0.66299999
3.8510001 -9.1610003 -0.653
3.885 -9.1590004 -0.65399998
3.902 -9.1199999 -0.65200001
3.915 -9.073 -0.648
3.71 -9.4969997 -0.86400002
4.1110001 -9.04 -0.29499999
3.7650001 -9.5500002 -0.87099999
3.79 -9.5249996 -0.87
4.0009999 -9.2390003 -0.244
4.006 -9.2110004 -0.243
4.0380001 -9.2030001 -0.243
4.066 -9.191 -0.243
4.1020002 -9.1920004 -0.244
4.158 -9.2419996 -0.24699999
4.224 -9.3100004 -0.25099999
3.8150001 -9.5 -0.86799997
4.0180001 -9.2159996 -0.30199999
3.993 -9.2469997 -0.184
4.0139999 -9.2180004 -0.184
4.04 -9.198 -0.183
4.0710001 -9.1890001 -0.183
4.105 -9.1890001 -0.184
4.1570001 -9.2270002 -0.186
4.223 -9.3330002 -0.191
3.934 -9.5010004 -0.62400001
3.904 -9.3450003 -0.611
3.891 -9.2729998 -0.60600001
3.901 -9.2150002 -0.602
3.9170001 -9.1730003 -0.59899998
3.9189999 -9.0979996 -0.59399998
3.9360001 -9.059 -0.59100002
3.9590001 -9.033 -0.58999997
3.9890001 -9.0249996 -0.58999997
3.9949999 -9.0 -0.58899999
4.0229998 -8.9860001 -0.58899999
4.0450001 -8.96 -0.58700001
4.0679998 -8.9370003 -0.58700001
4.0999999 -8.9329996 -0.58700001
4.112 -8.8839998 -0.58399999
3.8139999 -9.2880001 -1.341
3.8469999 -9.2849998 -1.342
3.8710001 -9.2620001 -1.34
3.8710001 -9.2209997 -1.335
3.8959999 -9.198 -1.3329999
3.911 -9.1529999 -1.327
3.944 -9.151 -1.329
3.977 -9.1479998 -1.331
4.0209999 -9.1700001 -1.336
4.0580001 -9.177 -1.34
4.072 -9.1709995 -1.34
4.1059999 -9.1689997 -1.341
4.1570001 -9.2040005 -1.35
4.1859999 -9.191 -1.35
4.2340002 -9.2209997 -1.357
4.2709999 -9.2259998 -1.36
4.3239999 -9.2639999 -1.369
4.3400002 -9.2589998 -1.369
4.3829999 -9.276 -1.374
4.4219999 -9.2840004 -1.378
4.474 -9.316 -1.386
3.8629999 -9.3100004 -1.16
3.983 -9.1829996 -0.116
3.908 -9.2550001 -1.156
3.9349999 -9.2390003 -1.155
4.0739999 -9.1540003 -0.116
4.1409998 -9.2270002 -0.119
3.9960001 -9.1800003 -1.151
4.0339999 -9.1899996 -1.154
4.0689998 -9.1899996 -1.156
4.092 -9.1639996 -1.154
3.957 -9.2720003 -0.421
4.1789999 -9.2399998 -1.169
4.2140002 -9.2410002 -1.171
4.2379999 -9.217 -1.169
4.2820001 -9.2360001 -1.174
3.915 -8.9049997 -0.69300002
3.96 -8.9329996 -0.69700003
4.007 -8.9619999 -0.70099998
4.0279999 -9.1219997 -0.414
4.0349998 -8.9119997 -0.69800001
4.0710001 -9.0649996 -0.412
4.0929999 -9.0749998 -0.41299999
4.1209998 -9.0469999 -0.83700001
4.2179999 -9.1070004 -0.847
3.756 -9.4980001 -0.80299997
3.789 -9.4919996 -0.80299997
3.816 -9.474 -0.80299997
3.8540001 -9.4820004 -0.80500001
3.826 -9.3299999 -0.79000002
3.823 -9.2410002 -0.78200001
3.8329999 -9.1829996 -0.77700001
3.875 -9.243 -0.78399998
3.8610001 -9.1280003 -0.773
3.859 -9.0469999 -0.76599997
3.8629999 -8.9779997 -0.75999999
3.8929999 -8.9689999 -0.75999999
3.937 -8.9940004 -0.764
3.9460001 -8.9370003 -0.759
3.973 -8.96 -0.76200002
4.0170002 -8.9820004 -0.76599997
4.0819998 -9.0509996 -0.77499998
4.1209998 -9.0620003 -0.77700001
4.1399999 -9.0270004 -0.77499998
