# .PCD v0.7 - Point Cloud Data file format
VERSION 0.7
FIELDS x y z
SIZE 4 4 4
TYPE F F F
COUNT 1 1 1
WIDTH 1782
HEIGHT 1
VIEWPOINT 0 0 0 1 0 0 0
POINTS 1782
DATA ascii
1.6569999 7.5209999 -1.5930001
1.655 7.5679998 -1.603
2.3169999 7.0970001 -1.1339999
1.641 7.7319999 -1.638
1.5829999 7.6989999 -1.628
1.502 7.2989998 -0.44
0.035 9.4020004 -0.72299999
2.2609999 7.0739999 -1.127
2.1389999 7.0170002 -1.2309999
-0.17900001 10.532 -0.32600001
-0.433 12.104 0.33000001
2.2320001 7.0599999 -1.123
2.207 7.0599999 -1.122
0.428 8.1639996 -0.84600002
0.405 8.217 -0.85299999
-1.179 15.507 -1.327
-0.71700001 16.566 -0.53399998
0.38299999 8.2950001 -0.86299998
2.109 6.9970002 -1.226
0.359 8.3479996 -0.87
2.0840001 7.0149999 -1.109
0.31200001 8.4849997 -0.88700002
0.28799999 8.5509996 -0.89499998
1.582 6.9330001 -1.074
2.01 7.006 -1.104
2.0840001 6.994 -1.224
-1.354 16.419001 -0.81599998
0.252 8.677 -0.91100001
0.226 8.743 -0.91900003
1.943 6.9780002 -1.096
0.17399999 8.8780003 -0.93599999
-0.82700002 13.848 -1.339
0.148 8.9549999 -0.94599998
2.0699999 6.9860001 -1.222
1.872 6.9770002 -1.0930001
1.845 6.9650002 -1.09
1.825 6.9770002 -1.091
0.052999999 9.3769999 -1.0
1.7690001 8.4069996 0.085000001
1.784 6.9549999 -1.086
2.0439999 6.9790001 -1.219
2.602 7.5370002 0.428
2.6259999 7.6849999 0.43200001
2.5469999 7.6079998 0.42899999
2.5999999 7.8460002 0.43599999
2.6129999 7.9699998 0.43900001
2.5339999 7.7709999 0.433
2.5039999 7.763 0.433
2.4760001 7.7600002 0.43200001
2.4519999 7.7680001 0.43200001
2.4219999 7.756 0.43200001
2.3940001 7.7519999 0.43200001
2.3599999 7.7309999 0.43099999
2.349 7.7389998 0.43099999
2.3199999 7.7290001 0.43000001
2.2939999 7.7319999 0.43000001
2.2620001 7.711 0.42899999
2.2379999 7.7210002 0.43000001
2.2090001 7.7090001 0.42899999
2.184 7.7140002 0.42899999
2.1659999 7.697 0.428
2.142 7.7049999 0.428
2.1140001 7.6960001 0.428
2.085 7.6859999 0.42699999
2.0610001 7.6939998 0.428
2.0320001 7.6810002 0.42699999
2.0020001 7.6680002 0.426
1.9809999 7.684 0.42699999
1.961 7.658 0.426
1.937 7.664 0.426
1.908 7.6490002 0.42500001
1.885 7.6589999 0.42500001
1.855 7.6420002 0.42500001
1.831 7.6469998 0.42500001
1.803 7.638 0.42399999
1.789 7.6329999 0.42399999
1.76 7.6149998 0.42300001
1.738 7.6300001 0.42399999
1.7130001 7.6300001 0.42300001
1.684 7.6139998 0.42300001
1.66 7.6170001 0.42300001
1.633 7.6100001 0.42300001
1.6160001 7.5910001 0.42199999
1.595 7.6079998 0.42199999
1.5700001 7.605 0.42199999
1.5420001 7.5910001 0.421
1.516 7.586 0.421
1.49 7.5799999 0.421
1.465 7.579 0.421
1.449 7.5619998 0.41999999
1.426 7.5679998 0.41999999
1.4 7.5609999 0.41999999
1.374 7.5539999 0.41999999
1.349 7.5539999 0.419
1.322 7.5380001 0.419
1.301 7.5560002 0.419
1.285 7.533 0.419
1.257 7.5149999 0.41800001
1.234 7.5209999 0.41800001
1.21 7.5250001 0.41800001
1.1849999 7.5190001 0.41800001
1.1619999 7.526 0.41800001
1.136 7.5139999 0.417
1.1210001 7.4959998 0.417
1.099 7.5079999 0.417
1.073 7.493 0.417
1.048 7.4889998 0.41600001
1.023 7.4860001 0.41600001
0.99800003 7.4770002 0.41600001
0.97399998 7.4759998 0.41600001
1.1670001 9.1330004 0.46200001
0.93900001 7.4809999 0.41600001
0.90899998 7.434 0.414
1.5 6.9229999 -1.069
1.478 6.927 -1.069
1.557 6.9260001 -1.072
0.53299999 7.777 0.42300001
0.52200001 7.9780002 0.428
0.514 8.0389996 0.43000001
0.458 7.5580001 0.417
0.42500001 7.4190001 0.41299999
0.403 7.4390001 0.41299999
1.433 6.9310002 -1.068
0.359 7.493 0.41499999
0.33500001 7.4920001 0.41499999
0.32600001 7.5349998 0.41600001
0.32100001 8.6009998 0.44499999
0.29699999 8.6859999 0.447
0.27000001 8.6870003 0.447
0.242 8.658 0.447
-0.096000001 10.414 0.495
-0.13 10.49 0.49700001
-0.185 12.196 0.54400003
1.59 7.2589998 -0.57499999
-0.244 12.253 0.54500002
-0.285 12.386 0.54900002
-0.324 12.406 0.55000001
-0.36000001 12.287 0.546
-0.40099999 12.371 0.54900002
1.5650001 7.2540002 -0.574
-0.47299999 12.199 0.54400003
-0.5 12.396 0.55000001
-0.653 13.161 0.57099998
-0.81 13.725 0.58600003
1.5420001 7.257 -0.574
-1.291 16.292999 0.65799999
1.943 6.9590001 -1.211
-1.436 17.118 0.68099999
-1.526 17.546 0.69300002
-1.6289999 18.076 0.70700002
1.521 7.2690001 -0.57499999
1.605 6.9349999 -1.075
1.487 7.224 -0.56999999
-1.699 16.441999 -0.53200001
1.459 7.2030001 -0.56699997
1.449 7.2090001 -0.56699997
0.116 9.0080004 -0.62699997
1.429 7.2290001 -0.56900001
1.92 6.96 -1.209
1.358 7.105 -0.55500001
2.668 7.4889998 -0.73100001
2.6300001 7.4559999 -0.72600001
2.595 7.4320002 -0.722
2.5799999 7.427 -0.72100002
2.553 7.4260001 -0.72000003
2.523 7.4130001 -0.71700001
1.9630001 7.2740002 -0.68199998
1.939 7.2789998 -0.68199998
1.9119999 7.2670002 -0.68000001
1.893 7.289 -0.68199998
1.862 7.2620001 -0.67799997
1.312 7.1079998 -0.55400002
1.835 7.3000002 -0.68099999
1.803 7.2709999 -0.67699999
1.775 7.257 -0.67500001
1.75 7.2509999 -0.67400002
1.725 7.2509999 -0.67299998
1.331 7.3309999 -0.57700002
1.692 7.2610002 -0.67299998
1.663 7.2410002 -0.67000002
1.641 7.25 -0.671
1.6160001 7.243 -0.66900003
1.592 7.243 -0.66799998
1.27 7.131 -0.55599999
1.5420001 7.2309999 -0.66600001
1.531 7.2350001 -0.66600001
1.505 7.2290001 -0.66500002
1.483 7.2350001 -0.66500002
1.4579999 7.23 -0.66399997
1.265 7.165 -0.55900002
1.411 7.2270002 -0.662
1.385 7.2179999 -0.66100001
1.373 7.2140002 -0.66000003
1.349 7.2150002 -0.66000003
1.324 7.2049999 -0.65799999
1.2359999 7.1350002 -0.55599999
1.278 7.2080002 -0.65700001
1.255 7.2119999 -0.65700001
1.232 7.2160001 -0.65700001
1.22 7.2119999 -0.65700001
1.1950001 7.2020001 -0.65499997
1.207 7.098 -0.551
1.15 7.2129998 -0.65499997
1.125 7.1989999 -0.653
1.104 7.2160001 -0.65499997
1.08 7.2080002 -0.65399998
1.067 7.1999998 -0.65200001
1.043 7.191 -0.65100002
1.0190001 7.1890001 -0.64999998
0.995 7.178 -0.64899999
0.94800001 7.1700001 -0.64700001
0.921 7.138 -0.64300001
0.89099997 7.0830002 -0.63599998
1.152 7.0450001 -0.54500002
0.861 7.303 -0.66100001
1.153 7.1859999 -0.55900002
0.53100002 7.8720002 -0.72399998
0.50800002 7.8959999 -0.727
0.498 7.9460001 -0.73199999
2.007 7.0580001 -0.926
0.45699999 8.1000004 -0.75
1.122 7.211 -0.56099999
0.412 8.2139997 -0.76300001
0.389 8.2700005 -0.76999998
0.366 8.335 -0.77700001
0.35499999 8.3809996 -0.78200001
0.33199999 8.4580002 -0.79100001
0.308 8.5179996 -0.79799998
0.28400001 8.5869999 -0.80599999
0.259 8.6590004 -0.81400001
0.234 8.717 -0.82099998
0.208 8.7860003 -0.829
0.19599999 8.8590002 -0.838
1.067 7.1570001 -0.55500001
0.14300001 9.0109997 -0.85500002
0.116 9.0769997 -0.86299998
0.089000002 9.1689997 -0.87400001
0.061000001 9.3059998 -0.88999999
0.033 9.4469995 -0.90600002
1.052 7.2069998 -0.56
-0.011 9.7259998 -0.93900001
-0.041999999 9.8549995 -0.954
-0.074000001 10.007 -0.972
-0.106 10.158 -0.98900002
-0.14 10.327 -1.0089999
1.026 7.1929998 -0.55800003
-0.211 10.661 -1.049
-0.23 10.802 -1.0650001
-0.248 10.046 -0.977
0.995 7.131 -0.551
0.88499999 7.2010002 -1.098
-0.82800001 13.775 -1.416
-0.866 14.041 -1.447
-0.92900002 14.344 -1.483
0.93699998 7.131 -0.55000001
1.832 6.9380002 -1.201
0.917 7.151 -0.55199999
0.89399999 7.1500001 -0.55199999
0.80900002 7.3369999 -1.119
0.85299999 7.3740001 -0.57499999
1.834 7.6659999 0.47600001
1.806 6.927 -1.198
0.75999999 7.4289999 -1.1339999
1.779 7.6459999 0.47499999
0.778 7.4460001 -0.58099997
0.75800002 7.474 -0.58399999
-1.2640001 15.946 -1.3710001
-0.85000002 13.796 -1.1569999
1.7819999 6.927 -1.197
0.033 9.4709997 -1.1849999
-0.074000001 9.9849997 -0.77999997
1.472 8.9589996 -0.31
-1.688 18.174 0.178
2.191 7.027 -1.2359999
-0.44600001 12.081 0.245
-0.91900003 14.167 -1.194
1.758 6.9229999 -1.1950001
0.53299999 7.8779998 -1.206
0.509 7.8850002 -1.207
1.5140001 6.9359999 -1.072
0.523 7.8390002 -0.62
1.735 6.9229999 -1.194
0.46700001 8.0139999 -1.229
0.44499999 8.0649996 -1.237
0.47999999 7.9330001 -0.62900001
0.46000001 8.0220003 -0.639
-0.51300001 12.345 0.24600001
0.44 8.1090002 -0.64700001
1.724 6.9239998 -1.194
0.41600001 8.1359997 -0.64999998
-0.46799999 12.182 0.245
0.40599999 8.1940002 -0.65600002
0.38299999 8.2530003 -0.662
0.36000001 8.3199997 -0.66900003
-0.66799998 13.13 0.248
1.227 7.5469999 0.46799999
1.698 6.914 -1.191
0.31299999 8.4530001 -0.68300003
0.289 8.5319996 -0.69099998
0.264 8.5780001 -0.69599998
0.90100002 7.178 -1.023
2.6359999 7.4819999 -0.435
2.595 7.5159998 -0.43700001
2.3169999 7.4640002 -0.426
2.2909999 7.4640002 -0.42500001
2.2609999 7.4499998 -0.42300001
2.2379999 7.4569998 -0.42300001
2.207 7.4390001 -0.421
2.188 7.4200001 -0.419
2.1670001 7.4320002 -0.41999999
2.141 7.4299998 -0.419
2.109 7.4070001 -0.417
2.0840001 7.408 -0.41600001
2.0550001 7.3959999 -0.41499999
2.0339999 7.4099998 -0.41499999
1.998 7.3699999 -0.41100001
1.988 7.3769999 -0.412
1.962 7.375 -0.41100001
1.938 7.3759999 -0.41100001
1.91 7.3660002 -0.40900001
1.888 7.3740001 -0.40900001
1.858 7.3530002 -0.40700001
1.831 7.3429999 -0.40599999
1.822 7.3579998 -0.40700001
1.796 7.3520002 -0.40599999
1.765 7.3249998 -0.403
1.74 7.3239999 -0.403
1.7180001 7.3340001 -0.403
1.696 7.3429999 -0.403
1.669 7.329 -0.40200001
1.654 7.3200002 -0.40099999
1.632 7.3270001 -0.40099999
1.605 7.3130002 -0.39899999
1.5779999 7.302 -0.398
1.5549999 7.3070002 -0.398
1.531 7.3080001 -0.398
1.506 7.3010001 -0.39700001
1.492 7.29 -0.396
1.4680001 7.29 -0.39500001
1.446 7.2989998 -0.396
1.421 7.296 -0.39500001
1.398 7.2979999 -0.39500001
1.381 7.3319998 -0.39700001
1.341 7.572 -0.41600001
1.323 7.6100001 -0.41800001
0.92299998 7.1739998 -0.37900001
0.898 7.1630001 -0.37799999
0.87400001 7.1479998 -0.37599999
0.055 9.3059998 -0.77100003
0.528 7.8759999 -0.43200001
0.50199997 7.8610001 -0.43099999
-0.003 9.5769997 -0.79900002
0.405 8.6370001 -0.49200001
0.361 8.2939997 -0.465
0.31600001 8.4610004 -0.47799999
0.30700001 8.5830002 -0.48800001
0.28 8.5600004 -0.486
0.255 8.6350002 -0.49200001
0.23 8.698 -0.49700001
0.204 8.7679996 -0.50199997
-0.0 9.5959997 -0.56900001
-0.029999999 9.7089996 -0.57800001
-0.096000001 10.01 -0.84500003
-0.061000001 9.8470001 -0.58899999
-0.077 9.9940004 -0.60100001
-0.11 10.147 -0.61299998
-0.14399999 10.314 -0.62599999
-0.17900001 10.469 -0.639
-0.215 10.646 -0.653
-0.252 10.823 -0.667
-0.28999999 11.011 -0.68300003
-0.31200001 11.2 -0.69800001
-0.35299999 11.398 -0.71399999
-0.39500001 11.595 -0.73000002
-0.43900001 11.8 -0.74599999
-0.484 12.014 -0.76300001
-0.53299999 12.264 -0.78399998
-0.58099997 12.479 -0.801
-0.61199999 12.725 -0.82099998
-0.727 13.402 -0.87599999
-0.77700001 13.531 -0.88599998
-0.83499998 13.795 -0.90799999
-0.89399999 14.055 -0.92900002
-0.95899999 14.366 -0.954
-1.003 14.693 -0.98000002
-1.073 15.026 -1.007
-1.145 15.36 -1.035
-1.22 15.715 -1.063
-1.299 16.086 -1.094
-1.386 16.525 -1.1289999
-1.473 16.934 -1.163
-1.5650001 17.362 -1.197
-1.635 17.834 -1.2359999
-1.737 18.316999 -1.275
-1.678 16.566 -1.135
-1.726 16.514999 -1.131
-1.775 16.486 -1.1289999
-1.831 16.52 -1.132
-1.848 16.431999 -1.126
-1.8940001 16.375999 -1.122
-1.9450001 16.374001 -1.122
-2.03 16.641001 -1.1440001
-1.65 18.058001 0.264
-1.6059999 17.745001 -1.55
1.581 6.9050002 -1.184
2.6029999 7.48 -0.0020000001
2.6259999 7.6620002 -0.0060000001
3.03 8.9460001 -0.041999999
2.9949999 8.9370003 -0.041000001
2.7420001 8.2600002 -0.022
2.9319999 8.934 -0.039999999
2.8940001 8.9619999 -0.041000001
2.688 8.9440002 -0.039000001
2.668 8.9770002 -0.039000001
2.6400001 8.9879999 -0.039999999
2.6059999 8.9770002 -0.039000001
2.575 8.9750004 -0.039000001
2.5450001 8.9759998 -0.039000001
2.5090001 8.9569998 -0.037999999
2.4820001 8.9680004 -0.037999999
2.4619999 8.9510002 -0.037
2.4360001 8.9659996 -0.037999999
2.4189999 9.0159998 -0.039000001
2.4100001 9.0959997 -0.041000001
2.3940001 9.1529999 -0.041999999
2.382 9.2270002 -0.044
2.365 9.283 -0.045000002
2.3239999 9.1800003 -0.041999999
2.0150001 8.6330004 -0.026000001
1.999 8.6269999 -0.026000001
1.969 8.6190004 -0.026000001
1.928 8.5629997 -0.024
1.887 8.5050001 -0.022
1.865 8.5319996 -0.023
1.83 8.5010004 -0.022
1.807 8.5200005 -0.022
1.7970001 8.5410004 -0.023
1.768 8.5380001 -0.023
1.752 8.5950003 -0.024
1.726 8.6059999 -0.024
1.6950001 8.5900002 -0.024
1.681 8.6619997 -0.025
1.661 8.7089996 -0.026000001
1.643 8.6879997 -0.026000001
1.6160001 8.6969995 -0.026000001
1.622 9.0489998 -0.035
1.63 9.2629995 -0.041000001
-1.7589999 16.558001 -1.4349999
-1.1160001 16.701 -1.5470001
1.2359999 8.993 -0.032000002
1.233 9.1870003 -0.037
0.90100002 7.2839999 0.013
0.91399997 7.5869999 0.0049999999
-1.104 15.059 -1.376
-1.398 16.610001 -1.54
-0.35800001 11.414 -0.921
-1.939 16.4 -0.324
-1.6900001 16.631001 -1.545
1.523 6.8979998 -1.181
1.39 7.158 -0.73400003
-1.7359999 16.566 -1.538
0.41100001 8.4139996 -0.015
0.38100001 8.3170004 -0.012
0.34900001 8.5319996 -0.017999999
0.32600001 8.625 -0.02
0.29899999 8.632 -0.02
0.27399999 8.7209997 -0.023
0.249 8.7860003 -0.024
0.229 9.1529999 -0.034000002
-1.888 16.278999 -1.51
-0.103 10.424 -0.067000002
-0.13699999 10.47 -0.068000004
-0.171 10.554 -0.07
1.499 6.8930001 -1.179
-0.54900002 12.674 -0.126
-0.815 16.773001 -0.233
-0.676 13.179 -0.139
-0.91900003 16.746 -0.233
-0.972 16.753 -0.233
-0.85100001 13.976 -0.16
-1.346 16.483999 -0.227
-1.415 16.677 -0.23199999
-1.501 17.354 -0.249
-1.717 16.377001 -0.72799999
-1.686 18.143999 -0.27000001
-0.97100002 14.606 -1.238
-1.804 16.603001 -0.23100001
-1.826 16.566999 -0.23
-1.877 16.555 -0.23
-1.926 16.521 -0.229
0.46700001 8.5810003 -0.43200001
1.478 6.902 -1.1799999
1.3380001 7.1300001 -0.72899997
1.454 6.895 -1.178
-0.178 10.469 -0.82800001
-1.587 17.691 -0.25799999
-0.85399997 14.014 -0.421
-1.225 16.032 0.75300002
0.149 8.9169998 -0.73100001
-0.36199999 11.472 -1.478
1.473 6.8769999 -1.3200001
-0.215 10.641 -0.84500003
1.921 6.9619999 -1.359
0.46799999 8.1160002 -0.59799999
1.752 7.0149999 -1.428
0.44100001 8.1040001 -0.597
0.41800001 8.1549997 -0.602
2.6459999 7.2979999 -0.99199998
2.6140001 7.2800002 -0.98699999
1.906 6.993 -1.364
2.8789999 8.9139996 0.074000001
2.842 8.8959999 0.075000003
1.628 9.1859999 0.30199999
-1.202 15.573 -1.235
0.242 8.7740002 -0.44499999
2.55 7.3169999 -0.98900002
0.289 8.5410004 -0.639
2.4960001 7.3109999 -0.986
2.668 8.8769999 0.075999998
2.6429999 8.8950005 0.075999998
2.427 7.296 -0.98000002
2.6029999 8.9130001 0.075000003
2.573 8.9169998 0.075000003
-0.88599998 14.047 -0.24600001
2.3510001 7.296 -0.977
2.5090001 8.9049997 0.075999998
0.222 9.1059999 -0.47
2.306 7.2750001 -0.972
-0.252 10.804 -0.861
2.2709999 7.2449999 -0.96600002
2.2290001 7.1880002 -0.95499998
1.847 6.993 -1.3609999
2.1849999 7.1269999 -0.94400001
2.158 7.1199999 -0.94199997
-1.058 16.586 -0.53600001
2.125 7.0910001 -0.93599999
2.1040001 7.1020002 -0.93699998
2.085 7.0799999 -0.93300003
2.0639999 7.0890002 -0.93300003
2.674 7.4990001 -0.778
2.6110001 7.3969998 -0.764
2.598 7.395 -0.76300001
2.562 7.368 -0.75800002
2.549 7.4060001 -0.76200002
2.3310001 9.335 0.071000002
2.493 7.3920002 -0.75800002
2.414 7.2319999 -0.73699999
2.4630001 7.46 -0.76499999
2.4579999 7.4829998 -0.76800001
2.3150001 7.4390001 -0.75700003
2.3039999 7.4879999 -0.76300001
2.2750001 7.4759998 -0.75999999
2.2539999 7.4489999 -0.75599998
2.277 7.612 -0.77600002
2.2030001 7.448 -0.75400001
2.165 7.4029999 -0.74800003
2.122 7.3429999 -0.73900002
2.1070001 7.3790002 -0.74299997
2.066 7.3200002 -0.73500001
2.0569999 7.3309999 -0.736
2.0339999 7.3390002 -0.736
2.007 7.3319998 -0.73400003
1.984 7.3369999 -0.73400003
1.961 7.3449998 -0.73400003
1.924 7.2950001 -0.727
1.895 7.2779999 -0.72399998
1.882 7.2750001 -0.72299999
1.8559999 7.2680001 -0.722
1.832 7.2719998 -0.72100002
1.808 7.2719998 -0.72100002
1.778 7.2459998 -0.71700001
1.7589999 7.2670002 -0.71899998
1.734 7.2649999 -0.71799999
1.719 7.2519999 -0.71600002
1.694 7.2459998 -0.71399999
0.92400002 7.1999998 -0.69199997
0.92900002 7.4369998 -0.72100002
0.82300001 7.3319998 -0.70700002
0.80199999 7.3559999 -0.70899999
0.79400003 7.3909998 -0.713
0.77499998 7.4330001 -0.71799999
0.755 7.4650002 -0.722
2.631 7.5999999 0.19400001
2.622 7.7319999 0.19400001
3.0039999 8.9639997 0.192
2.6670001 8.0310001 0.193
2.944 8.9720001 0.192
2.9230001 8.9549999 0.192
2.898 8.9720001 0.192
2.868 8.9770002 0.192
2.7980001 8.9490004 0.192
2.7 8.9820004 0.192
2.671 8.9879999 0.192
2.648 9.0159998 0.192
2.6199999 9.026 0.192
2.582 8.9969997 0.192
2.5539999 9.007 0.192
2.53 8.9750004 0.192
2.503 8.9890003 0.192
2.4660001 8.9650002 0.192
2.437 8.9689999 0.192
2.428 9.0480003 0.192
2.4119999 9.1040001 0.192
2.3970001 9.1639996 0.192
2.4070001 9.2609997 0.192
2.368 9.2320004 0.192
2.388 9.4350004 0.191
0.193 8.8940001 -0.89300001
0.16599999 8.9639997 -0.90200001
0.139 9.04 -0.91100001
1.825 8.474 0.193
1.811 8.4729996 0.193
0.055 9.3730001 -0.95099998
0.025 9.5059996 -0.96799999
1.745 8.559 0.193
1.673 9.007 0.077
-0.052999999 9.9429998 -1.021
-0.086000003 10.093 -1.04
-0.12 10.256 -1.0599999
-0.155 10.426 -1.081
-0.192 10.606 -1.103
1.6440001 9.0089998 0.077
-0.23199999 10.206 -1.054
1.322 8.9940004 0.192
1.206 8.9840002 0.192
1.202 9.1780005 0.192
1.16 8.9639997 0.192
0.88599998 7.3509998 0.19499999
0.88800001 7.5710001 0.19499999
0.84100002 7.3649998 0.19499999
1.628 9.1680002 0.075000003
-1.0319999 14.81 -1.258
1.14 6.8959999 -1.1670001
-0.27500001 11.004 -0.88099998
-1.109 15.217 -1.298
0.477 8.1689997 0.19400001
0.48500001 8.8109999 0.193
0.44100001 8.4849997 0.193
0.38499999 8.4119997 0.193
0.375 8.4919996 0.193
0.34999999 8.5570002 0.193
0.32600001 8.6400003 0.193
0.30000001 8.6789999 0.193
0.27500001 8.7419996 0.193
0.25 8.8310003 0.193
0.229 9.1339998 0.192
-1.349 16.360001 -1.4119999
-1.11 16.591 -0.53600001
-0.66100001 13.082 -0.07
1.21 8.9119997 0.079999998
1.1289999 6.901 -1.168
-0.13699999 10.482 0.19
1.209 9.1199999 0.077
1.473 7.0409999 -0.90399998
0.273 8.5880003 -1.324
-0.86900002 14.27 0.184
-1.345 16.464001 0.18099999
-1.501 17.35 0.17900001
0.84100002 7.0640001 0.106
-1.8150001 16.587999 -1.439
-0.074000001 9.9790001 -1.214
-1.862 16.309999 -1.4119999
1.109 6.9130001 -1.169
-1.909 16.264 -1.408
-1.967 16.318001 -1.414
0.021 9.9180002 -0.52899998
-0.49900001 12.254 -0.34200001
1.476 6.9699998 -1.406
-1.125 15.195 -1.199
1.439 6.96 -1.402
-0.47799999 12.262 0.331
1.1339999 7.1370001 -0.91000003
-0.026000001 9.7060003 -0.75300002
1.0880001 6.9910002 -0.88599998
1.045 6.9310002 -1.171
1.349 6.9619999 -1.399
-0.315 11.206 -0.90100002
1.066 6.994 -0.88599998
1.325 6.9520001 -1.396
1.046 7.0110002 -0.88800001
1.027 7.0380001 -0.89200002
-1.881 16.334999 -1.3099999
1.01 7.072 -0.89700001
-1.929 16.306 -1.308
-1.186 16.93 -0.551
1.027 6.961 -1.176
-1.982 16.313 -1.309
0.176 8.8570004 -0.72399998
0.98199999 7.1199999 -0.903
1.225 6.961 -1.3940001
0.23999999 9.0380001 0.079000004
-0.40099999 11.604 -0.94
1.008 6.9819999 -1.179
1.1440001 6.9510002 -1.3890001
1.1 6.9559999 -1.388
-0.82200003 16.575001 -0.53500003
1.001 7.0110002 -1.184
0.847 7.243 -0.73400003
1.0190001 7.0120001 -1.397
0.99199998 7.0609999 -1.4069999
-0.086999997 10.381 0.059999999
0.98199999 7.0310001 -1.187
0.29699999 8.5200005 -1.312
0.82700002 7.2709999 -0.73699999
1.679 9.059 0.30000001
0.88999999 7.25 -1.444
0.963 7.0619998 -1.192
0.80900002 7.3109999 -0.74199998
1.865 6.9190001 -0.81599998
0.39500001 8.2159996 -0.60799998
1.873 7.033 -0.83200002
1.847 7.0279999 -0.82999998
0.78899997 7.3429999 -0.745
1.822 7.02 -0.82800001
1.752 6.8850002 -0.80699998
1.7589999 7.0040002 -0.824
-1.466 17.219 0.26100001
1.7359999 7.007 -0.824
2.6270001 7.4640002 -0.245
2.598 7.533 -0.248
3.006 8.882 -0.32699999
2.9960001 8.8999996 -0.32800001
0.76899999 7.3790002 -0.75
2.658 8.3299999 -0.292
2.622 8.3079996 -0.28999999
2.5899999 8.2550001 -0.28600001
2.6240001 8.4530001 -0.29800001
2.6099999 8.5019999 -0.30000001
2.2850001 7.5380001 -0.243
2.2579999 7.5320001 -0.242
2.2260001 7.5139999 -0.23999999
2.2019999 7.5190001 -0.23999999
2.187 7.5089998 -0.23899999
2.1600001 7.506 -0.23899999
2.1300001 7.4920001 -0.23800001
2.1040001 7.487 -0.237
2.0780001 7.4860001 -0.236
2.05 7.4770002 -0.236
2.0220001 7.4679999 -0.235
2.01 7.4689999 -0.234
1.982 7.46 -0.234
1.9529999 7.4429998 -0.23199999
1.929 7.4489999 -0.23199999
1.903 7.4439998 -0.23199999
1.877 7.4400001 -0.23100001
1.85 7.4320002 -0.23
1.837 7.428 -0.23
1.811 7.4219999 -0.229
1.784 7.4159999 -0.228
1.757 7.4039998 -0.227
1.734 7.4109998 -0.227
1.7079999 7.4050002 -0.227
1.6849999 7.4099998 -0.227
1.671 7.4029999 -0.226
1.643 7.3889999 -0.22499999
1.617 7.382 -0.22400001
1.592 7.3779998 -0.22400001
1.569 7.3850002 -0.22400001
1.545 7.3860002 -0.22400001
1.516 7.3629999 -0.222
1.494 7.3740001 -0.223
1.479 7.3579998 -0.222
1.455 7.3590002 -0.221
1.432 7.3639998 -0.221
1.4069999 7.3559999 -0.221
1.381 7.3470001 -0.22
1.36 7.3610001 -0.22
1.348 7.428 -0.22400001
1.347 7.487 -0.227
1.335 7.5560002 -0.23100001
1.3200001 7.6100001 -0.234
1.502 8.9659996 -0.31099999
0.23 8.7700005 -1.146
1.429 8.96 -0.31
1.513 6.994 -0.815
1.368 8.941 -0.30899999
1.3380001 8.9329996 -0.308
1.309 8.9320002 -0.308
0.205 8.842 -1.1569999
1.251 8.9219999 -0.30700001
1.227 8.8590002 -0.303
0.94599998 7.1939998 -0.207
0.91799998 7.1609998 -0.205
0.89700001 7.1700001 -0.206
0.178 8.9110003 -1.168
1.045 8.8719997 -0.30199999
1.478 6.9910002 -0.81300002
0.98799998 8.868 -0.30199999
0.95899999 8.8620005 -0.301
0.93099999 8.8610001 -0.301
0.152 8.9849997 -1.179
1.456 6.9980001 -0.81400001
0.125 9.0609999 -1.191
1.433 6.9949999 -0.81199998
0.55000001 7.8740001 -0.243
0.52399999 7.8520002 -0.242
0.50400001 7.927 -0.24600001
0.48199999 7.974 -0.249
1.41 6.9949999 -0.81199998
0.43000001 8.665 -0.28799999
0.38299999 8.2589998 -0.26499999
0.361 8.3520002 -0.27000001
0.34 8.4569998 -0.27599999
0.303 8.9139996 -0.301
0.27900001 8.6269999 -0.285
0.255 8.7139997 -0.28999999
0.229 8.7629995 -0.29300001
0.057 9.4049997 -1.243
1.365 6.9980001 -0.81099999
0.028000001 9.5299997 -1.262
1.339 6.9829998 -0.80800003
-0.116 10.372 -0.384
-0.0020000001 9.6700001 -1.284
1.325 6.9710002 -0.80599999
-0.032000002 9.8070002 -1.3049999
-0.61299998 16.598 -0.736
1.302 6.9699998 -0.80500001
-1.3329999 16.422001 -0.52899998
-0.493 12.128 -0.48300001
-0.54100001 12.36 -0.49700001
-0.064000003 9.9610004 -1.3279999
-0.81999999 16.549 -0.73400003
1.2819999 6.9819999 -0.80699998
-0.89700001 16.527 -0.73299998
-0.94800001 16.51 -0.73199999
-0.86400002 14.211 -0.602
-0.079999998 10.111 -1.351
-0.972 14.486 -0.61799997
1.26 6.9860001 -0.80699998
-1.183 16.517 -0.73299998
-1.158 15.475 -0.67500001
-1.2359999 15.852 -0.69599998
-0.113 10.265 -1.375
-1.397 16.582001 -0.73799998
1.237 6.9840002 -0.80599999
-1.572 16.493999 -0.73400003
-1.624 16.485001 -0.73400003
-0.148 10.45 -1.404
-1.668 16.403 -0.72899997
1.2130001 6.98 -0.80500001
-1.767 16.351999 -0.727
-1.818 16.35 -0.727
-1.869 16.334999 -0.727
-0.182 10.58 -1.424
-1.934 16.225 -0.72100002
1.1900001 6.9720001 -0.80299997
-2.043 16.27 -0.72399998
-2.1289999 16.542 -0.74000001
-0.219 10.775 -1.454
1.1799999 6.9829998 -0.80400002
-0.257 10.964 -1.483
1.1569999 6.9809999 -0.80299997
-0.29699999 11.21 -1.52
1.136 6.987 -0.80400002
1.112 6.9809999 -0.80199999
1.089 6.974 -0.801
1.097 6.9419999 -1.0599999
1.066 6.9720001 -0.80000001
1.049 7.0100002 -0.80500001
1.039 7.02 -0.80599999
1.021 7.0450001 -0.80900002
1.0 7.0609999 -0.81099999
0.98199999 7.0879998 -0.815
0.963 7.1209998 -0.81900001
0.94599998 7.1570001 -0.824
1.4299999 7.296 -0.43799999
0.92400002 7.1680002 -0.82499999
0.91299999 7.1729999 -0.82499999
0.89300001 7.1950002 -0.82800001
-0.44600001 11.837 -0.963
0.87300003 7.2160001 -0.83099997
0.85600001 7.2620001 -0.83700001
0.83600003 7.29 -0.83999997
0.81800002 7.3379998 -0.847
0.79799998 7.3660002 -0.85100001
0.094999999 9.073 -0.74699998
0.79000002 7.401 -0.85500002
0.76800001 7.4169998 -0.85699999
0.74800003 7.4450002 -0.861
1.307 6.9219999 -1.063
-1.601 16.511999 -0.53399998
-1.847 16.528999 -0.14399999
2.6730001 7.7389998 0.39500001
2.628 7.7670002 0.39500001
2.612 7.8000002 0.396
2.6400001 7.9679999 0.39899999
2.598 7.9229999 0.398
2.5439999 7.7969999 0.39500001
2.513 7.7859998 0.39500001
2.48 7.7670002 0.39399999
2.4549999 7.7729998 0.39399999
2.428 7.7709999 0.39399999
2.4030001 7.7789998 0.39399999
2.3710001 7.7600002 0.39300001
2.346 7.7649999 0.39300001
2.329 7.7540002 0.39300001
2.3010001 7.7470002 0.39199999
2.2739999 7.7449999 0.39199999
2.2449999 7.7389998 0.39199999
2.2149999 7.7249999 0.391
2.1900001 7.73 0.391
2.1630001 7.7270002 0.391
2.1459999 7.711 0.391
2.1210001 7.7160001 0.391
2.0940001 7.7129998 0.38999999
2.0669999 7.7080002 0.38999999
2.036 7.6869998 0.389
2.0109999 7.691 0.389
1.982 7.678 0.389
1.967 7.6719999 0.389
1.944 7.6799998 0.389
1.918 7.6799998 0.389
1.888 7.6630001 0.38800001
1.862 7.6589999 0.38800001
1.839 7.6700001 0.38800001
1.809 7.651 0.38699999
1.794 7.638 0.38699999
1.768 7.638 0.38699999
1.74 7.6240001 0.38600001
1.715 7.6269999 0.38600001
1.692 7.6370001 0.38600001
1.663 7.6160002 0.38600001
1.6390001 7.6199999 0.38600001
1.623 7.605 0.38499999
1.595 7.5900002 0.38499999
1.572 7.6009998 0.38499999
1.546 7.5939999 0.38499999
1.522 7.599 0.38499999
1.495 7.5879998 0.384
1.469 7.579 0.384
1.456 7.5770001 0.384
1.431 7.5739999 0.384
1.403 7.5549998 0.38299999
1.378 7.5549998 0.38299999
1.353 7.5500002 0.38299999
1.33 7.5619998 0.38299999
1.304 7.5500002 0.38299999
1.279 7.5479999 0.38299999
1.268 7.552 0.38299999
1.2410001 7.5349998 0.382
1.214 7.5209999 0.382
1.1900001 7.5219998 0.382
1.164 7.506 0.38100001
1.143 7.5320001 0.382
1.118 7.5229998 0.38100001
1.103 7.5050001 0.38100001
1.0779999 7.5009999 0.38100001
1.052 7.4860001 0.38
1.029 7.4899998 0.38
1.0039999 7.4809999 0.38
0.97899997 7.4759998 0.38
1.1670001 9.1820002 0.419
0.92900002 7.3579998 0.377
0.88800001 7.4050002 0.37799999
0.86199999 7.3860002 0.37799999
0.81599998 7.1859999 0.373
-0.49200001 12.041 -0.98299998
0.49399999 8.1009998 0.39300001
0.43099999 7.4250002 0.37799999
0.40700001 7.4050002 0.377
0.322 8.658 0.40599999
0.296 8.7189999 0.40700001
0.27500001 8.9390001 0.412
0.244 8.8380003 0.41
0.21699999 8.8470001 0.41
-0.145 10.566 0.449
-0.248 12.202 0.486
-0.26899999 12.272 0.48800001
-0.30700001 12.255 0.48699999
-0.345 12.248 0.48699999
-0.389 12.423 0.491
-0.419 12.16 0.48500001
-0.45699999 12.15 0.48500001
-0.50300002 12.348 0.49000001
-0.82999998 14.218 0.53299999
-0.86799997 14.116 0.52999997
0.48100001 7.98 -0.82300001
-1.2920001 16.329 0.58099997
-1.3660001 16.599001 0.588
-1.635 18.093 0.62199998
2.598 7.2449999 -0.78500003
2.5699999 7.2360001 -0.78299999
2.54 7.2259998 -0.77999997
2.51 7.211 -0.77700001
2.48 7.1999998 -0.77499998
2.457 7.2059999 -0.77499998
2.428 7.1950002 -0.77200001
2.424 7.2199998 -0.77499998
2.402 7.2290001 -0.77499998
2.368 7.2049999 -0.77100003
2.3429999 7.2030001 -0.76999998
2.3150001 7.1950002 -0.76800001
2.2809999 7.1680002 -0.76300001
2.257 7.1690001 -0.76200002
2.2449999 7.1690001 -0.76200002
2.2160001 7.1550002 -0.759
2.1900001 7.151 -0.75700003
2.1670001 7.158 -0.75700003
2.155 7.1989999 -0.76200002
2.125 7.1830001 -0.759
2.0969999 7.1680002 -0.75599998
2.079 7.1490002 -0.75300002
2.0569999 7.1570001 -0.75300002
2.027 7.1370001 -0.75
2.0050001 7.1469998 -0.75
1.982 7.1500001 -0.75
1.9529999 7.1329999 -0.74699998
1.929 7.1329999 -0.74599999
1.9170001 7.1339998 -0.74599999
1.892 7.131 -0.74400002
1.8660001 7.1230001 -0.74299997
1.847 7.1409998 -0.74400002
1.822 7.1389999 -0.74299997
1.795 7.125 -0.741
1.773 7.1329999 -0.741
1.757 7.1160002 -0.73799998
1.735 7.1220002 -0.73799998
1.715 7.1370001 -0.74000001
1.687 7.1209998 -0.73699999
1.6619999 7.1149998 -0.73500001
1.642 7.131 -0.73699999
1.617 7.1230001 -0.73500001
1.603 7.1160002 -0.73400003
1.582 7.125 -0.73400003
1.558 7.1220002 -0.73299998
1.5319999 7.1129999 -0.73100001
1.51 7.118 -0.73100001
1.493 7.1479998 -0.73500001
1.471 7.152 -0.73500001
1.448 7.1570001 -0.73500001
2.651 7.5100002 -0.484
2.6140001 7.5570002 -0.486
2.585 7.586 -0.48800001
2.5539999 7.573 -0.486
2.5320001 7.5869999 -0.48699999
2.493 7.5500002 -0.48199999
2.464 7.54 -0.48100001
2.437 7.5380001 -0.47999999
2.4130001 7.5440001 -0.47999999
2.392 7.559 -0.48100001
2.369 7.5289998 -0.477
2.3269999 7.4770002 -0.472
2.302 7.4790001 -0.472
2.273 7.4689999 -0.47
2.2490001 7.474 -0.47
2.217 7.4499998 -0.46700001
2.1889999 7.4439998 -0.46599999
2.174 7.434 -0.465
2.1500001 7.4390001 -0.465
2.1159999 7.4070001 -0.461
2.095 7.4229999 -0.46200001
2.0639999 7.401 -0.45899999
2.0420001 7.4109998 -0.46000001
2.013 7.3969998 -0.458
2.0 7.3959999 -0.458
1.97 7.375 -0.45500001
1.949 7.3889999 -0.456
1.92 7.3740001 -0.454
1.895 7.3720002 -0.45300001
1.869 7.3670001 -0.45199999
1.84 7.349 -0.44999999
1.829 7.3540001 -0.44999999
1.802 7.3439999 -0.449
1.775 7.3340001 -0.44800001
1.751 7.3340001 -0.447
1.726 7.3319998 -0.44600001
1.699 7.322 -0.44499999
1.679 7.3400002 -0.44600001
1.66 7.3080001 -0.44299999
1.642 7.3390002 -0.44499999
1.613 7.3130002 -0.44299999
1.5880001 7.3099999 -0.442
1.562 7.3010001 -0.44100001
1.54 7.3080001 -0.44100001
1.516 7.309 -0.44100001
0.50199997 7.9190001 -0.81599998
1.478 7.3000002 -0.43900001
1.454 7.2989998 -0.43900001
0.43700001 8.0979996 -0.838
1.404 7.2820001 -0.43599999
1.385 7.3099999 -0.43900001
1.376 7.3930001 -0.44499999
1.3609999 7.441 -0.449
1.35 7.4450002 -0.449
1.327 7.4569998 -0.44999999
1.303 7.4530001 -0.449
1.284 7.4860001 -0.45199999
1.257 7.4710002 -0.44999999
1.234 7.4749999 -0.44999999
1.204 7.4390001 -0.447
1.193 7.4450002 -0.447
1.169 7.4429998 -0.447
1.14 7.4070001 -0.44299999
1.115 7.4029999 -0.442
1.092 7.4060001 -0.442
1.071 7.4229999 -0.44400001
1.0420001 7.3889999 -0.44
1.029 7.3769999 -0.43900001
0.91000003 7.1760001 -0.421
0.87400001 7.0739999 -0.412
0.88300002 7.4419999 -0.44299999
0.86199999 7.4629998 -0.44499999
0.84200001 7.5050001 -0.44800001
0.82200003 7.5370002 -0.45100001
0.801 7.5669999 -0.45300001
0.78200001 7.618 -0.45699999
-0.29899999 11.107 -1.222
0.759 7.6279998 -0.458
-0.36300001 11.514 -1.274
-0.40700001 11.757 -1.3049999
-0.449 11.884 -1.322
-0.495 12.117 -1.352
1.905 6.947 -1.207
-0.64600003 12.872 -1.449
-0.68099999 13.18 -1.489
-0.73500001 13.406 -1.518
-0.792 13.677 -1.553
0.46700001 8.0270004 -0.49000001
0.44600001 8.1020002 -0.49599999
0.43599999 8.1520004 -0.50099999
0.41299999 8.2150002 -0.50599998
2.513 7.3759999 -0.75700003
0.36700001 8.3590002 -0.51800001
0.31900001 8.4750004 -0.528
0.294 8.5349998 -0.53299999
0.28299999 8.6149998 -0.54000002
0.25799999 8.6879997 -0.546
0.23199999 8.7449999 -0.551
0.208 8.9209995 -0.56599998
0.17900001 8.8970003 -0.56400001
0.152 8.9610004 -0.56900001
0.125 9.0380001 -0.57599998
0.111 9.092 -0.58099997
0.083999999 9.2229996 -0.59200001
0.055 9.349 -0.60299999
0.026000001 9.4870005 -0.61400002
-0.0049999999 9.6359997 -0.62699997
-0.035999998 9.7740002 -0.639
-0.068000004 9.9230003 -0.65200001
-0.085000001 10.07 -0.66500002
-0.119 10.235 -0.67900002
-0.154 10.398 -0.69300002
-0.19 10.579 -0.70899999
-0.227 10.734 -0.722
-0.248 10.253 -0.68099999
-0.28200001 10.296 -0.68400002
2.2149999 7.0279999 -1.237
-1.6900001 18.379999 0.48800001
-2.0239999 16.323 -0.528
0.336 8.4180002 -0.87800002
2.177 7.0419998 -1.118
-0.84399998 16.524 -0.73299998
-0.76999998 16.577999 -0.53500003
-2.0539999 16.349001 -0.52899998
0.185 8.8760004 -1.372
2.1670001 7.0500002 -1.119
-2.1040001 16.337 -0.52899998
-0.83700001 13.9 0.25099999
-0.57300001 12.545 -1.033
-2.102 16.554001 -0.82999998
1.875 8.4639997 -0.13
2.1370001 7.0300002 -1.114
-0.15000001 10.567 0.368
0.27700001 8.6169996 -0.903
-0.67900002 13.229 0.186
1.859 8.4549999 -0.13
1.977 8.5200005 -0.075999998
2.1129999 7.0310001 -1.113
1.947 8.5100002 -0.075000003
1.786 8.4799995 -0.072999999
1.728 8.4659996 -0.071999997
2.0610001 7.0180001 -1.108
1.681 8.4399996 -0.071000002
0.73500001 7.5110002 -0.727
0.15899999 8.9359999 -1.382
0.2 8.8079996 -0.92799997
0.71399999 7.539 -0.73000002
2.033 7.0009999 -1.104
-0.625 12.79 -1.057
0.211 8.8079996 -1.3609999
1.7130001 7.0089998 -0.82300001
0.48100001 8.0480003 -0.79100001
1.688 6.9990001 -0.82099998
0.43200001 8.184 -1.058
0.45899999 8.1070004 -0.79799998
0.43599999 8.1680002 -0.80500001
0.414 8.2370005 -0.81300002
0.121 9.0369997 -0.95700002
0.38999999 8.29 -0.81999999
2.5910001 7.415 -0.046999998
2.598 7.5879998 -0.052000001
3.0150001 8.882 -0.096000001
3.0 8.8850002 -0.096000001
2.7490001 8.2309999 -0.072999999
2.934 8.8710003 -0.094999999
2.8859999 8.9139996 -0.096000001
0.41 8.2550001 -1.069
2.707 8.9829998 -0.096000001
2.632 8.9379997 -0.093999997
2.6010001 8.9370003 -0.093999997
2.579 8.9139996 -0.093000002
2.5480001 8.9110003 -0.092
2.5190001 8.915 -0.092
2.4849999 8.9029999 -0.090999998
2.4579999 8.915 -0.092
2.4260001 8.9069996 -0.090999998
2.4089999 8.9540005 -0.092
2.4119999 9.0229998 -0.094999999
2.3959999 9.0769997 -0.096000001
2.3559999 9.1560001 -0.097999997
2.375 9.3509998 -0.104
2.3039999 9.1929998 -0.098999999
2.0420001 8.552 -0.077
2.0090001 8.533 -0.075999998
0.108 9.1070004 -0.96600002
0.28299999 8.6219997 -0.86000001
1.92 8.5159998 -0.075000003
1.895 8.467 -0.072999999
1.8710001 8.4820004 -0.074000001
1.839 8.467 -0.072999999
1.808 8.4530001 -0.071999997
0.257 8.6800003 -0.86699998
1.7589999 8.4799995 -0.072999999
1.655 7.0079999 -0.82099998
1.7130001 8.4619999 -0.071999997
0.38699999 8.309 -1.077
1.651 8.4259996 -0.07
1.624 8.4309998 -0.07
1.597 8.4320002 -0.07
1.576 8.4650002 -0.071000002
1.6210001 9.0129995 -0.089000002
1.643 9.2159996 -0.094999999
1.561 8.9200001 -0.085000001
0.205 8.8249998 -0.884
1.916 8.507 0.193
0.132 9.033 -1.398
1.2460001 9.1389999 -0.090999998
0.081 9.2419996 -0.98299998
0.88800001 7.2270002 -0.028999999
0.89899999 7.5009999 -0.037
0.347 8.5450001 0.294
1.851 8.4650002 0.193
1.921 6.9860001 -1.097
1.63 7.0 -0.81900001
0.36399999 8.3789997 -1.087
0.111 9.1219997 -0.921
0.082999997 9.2360001 -0.935
0.49000001 7.9790001 -0.052000001
0.46799999 8.0310001 -0.052999999
1.786 8.4870005 0.193
0.41 8.6479998 -0.072999999
-0.68199998 13.094 -1.0880001
0.303 8.6789999 -0.074000001
0.27399999 8.6359997 -0.071999997
0.26199999 8.6920004 -0.074000001
0.236 8.7469997 -0.075999998
0.20999999 8.7840004 -0.077
0.0099999998 9.6450005 -0.98500001
1.893 6.9689999 -1.0930001
1.6059999 6.9980001 -0.81800002
0.34 8.4320002 -1.095
-0.021 9.8000002 -1.0039999
-0.17299999 10.518 -0.132
1.689 9.0950003 0.192
1.6619999 9.1059999 0.192
0.024 9.5080004 -1.017
1.63 9.092 0.192
-0.93900001 16.634001 -0.329
-0.033 9.7119999 -0.81400001
-0.84799999 14.164 -0.25
0.296 8.6499996 0.29499999
1.63 9.2620001 0.192
-1.376 16.517 -0.32600001
1.581 6.9910002 -0.81599998
-1.556 17.375999 -0.354
-1.67 18.016001 -0.375
0.31600001 8.5039997 -1.1059999
-1.712 16.473 -0.32600001
-1.761 16.448 -0.32499999
-1.811 16.424999 -0.32499999
-1.863 16.419001 -0.32499999
-1.887 16.406 -0.324
-0.197 10.107 -1.0420001
-1.99 16.392 -0.324
-0.0049999999 9.6549997 -1.036
1.558 6.9899998 -0.81599998
0.30500001 8.5719995 -1.1160001
-0.26100001 10.118 -1.043
-0.41800001 11.744 -1.243
-0.035999998 9.8039999 -1.0549999
1.619 9.0509996 -0.15000001
-0.46399999 11.955 -1.2690001
1.535 6.9910002 -0.815
0.28099999 8.6339998 -1.126
0.412 8.5900002 -0.229
-0.067000002 9.9399996 -1.072
1.807 6.9549999 -1.087
0.37400001 8.3280001 -0.215
0.25600001 8.6999998 -1.136
0.34099999 8.4860001 -0.223
0.29100001 8.5950003 -0.229
-0.73699999 13.326 -1.1109999
-0.083999999 10.103 -1.0930001
1.807 7.658 0.47499999
-0.074000001 10.377 0.31200001
0.23999999 8.7290001 -0.235
1.633 7.5799999 -1.605
0.214 8.7950001 -0.23800001
-0.117 10.24 -1.1109999
-0.107 10.417 0.31299999
1.758 6.9450002 -1.0829999
0.236 8.7209997 -1.346
-1.954 16.539 -0.14399999
-0.15099999 10.416 -1.133
-0.124 10.485 0.31299999
1.737 6.9530001 -1.0829999
-0.186 10.576 -1.154
-0.15899999 10.578 0.31400001
1.712 6.948 -1.082
1.068 6.9889998 -0.99699998
0.077 9.1700001 -1.421
-0.222 10.75 -1.176
1.689 6.948 -1.081
-0.71399999 13.287 -0.222
-0.25999999 10.927 -1.199
1.663 6.934 -1.077
1.387 6.9980001 -0.81199998
1.073 6.9349999 -1.12
0.112 9.1400003 -1.2029999
0.17 8.9370003 -0.847
-1.303 16.256001 -0.31799999
-1.48 17.129999 -0.34599999
1.652 6.9369998 -1.077
2.286 7.0760002 -1.1289999
-0.103 10.452 0.19
2.615 7.3299999 -0.85100001
2.582 7.3119998 -0.847
2.5510001 7.296 -0.84299999
2.52 7.2810001 -0.83999997
2.4920001 7.2719998 -0.838
2.4619999 7.2589998 -0.83499998
2.4489999 7.2579999 -0.83399999
2.4200001 7.2480001 -0.83200002
2.3889999 7.2309999 -0.82800001
2.362 7.224 -0.82599998
2.3329999 7.2119999 -0.82300001
2.3069999 7.21 -0.82200003
2.28 7.2020001 -0.81999999
2.2650001 7.1929998 -0.81800002
2.2360001 7.1810002 -0.815
2.211 7.178 -0.81400001
2.1819999 7.164 -0.81099999
2.1570001 7.164 -0.81
2.1300001 7.1550002 -0.80800003
2.1040001 7.1479998 -0.80599999
2.0769999 7.1399999 -0.80400002
2.063 7.1329999 -0.80299997
2.0380001 7.132 -0.801
2.0109999 7.1209998 -0.79900002
1.988 7.1259999 -0.79900002
1.962 7.1170001 -0.79699999
1.933 7.098 -0.79299998
1.91 7.1040001 -0.79299998
1.896 7.0949998 -0.792
1.872 7.0939999 -0.79100001
1.849 7.0960002 -0.79000002
1.8279999 7.1090002 -0.79100001
1.802 7.098 -0.78899997
1.776 7.0900002 -0.787
1.753 7.0910001 -0.78600001
1.742 7.0939999 -0.78600001
1.7180001 7.0960002 -0.78600001
1.6950001 7.0970001 -0.78500003
1.673 7.1030002 -0.78500003
1.652 7.1160002 -0.78600001
1.627 7.105 -0.78399998
1.601 7.0970001 -0.78200001
1.595 7.1209998 -0.78500003
1.569 7.1079998 -0.78299999
1.549 7.125 -0.78399998
1.526 7.1269999 -0.78399998
1.5 7.1170001 -0.78200001
1.479 7.125 -0.78200001
1.456 7.1259999 -0.78200001
1.441 7.1110001 -0.77999997
1.42 7.1209998 -0.77999997
1.3940001 7.1059999 -0.778
1.37 7.105 -0.77700001
1.347 7.1030002 -0.77600002
1.324 7.1069999 -0.77600002
1.3 7.0999999 -0.77399999
1.288 7.098 -0.77399999
1.265 7.098 -0.773
1.242 7.098 -0.773
1.219 7.098 -0.77200001
1.197 7.1040001 -0.773
1.173 7.0939999 -0.77100003
1.15 7.0970001 -0.77100003
1.127 7.0949998 -0.76999998
1.117 7.105 -0.77100003
1.097 7.1199999 -0.773
1.074 7.119 -0.77200001
1.05 7.1170001 -0.77100003
1.024 7.0910001 -0.76700002
1.002 7.098 -0.76800001
0.98199999 7.1160002 -0.76999998
0.97399998 7.1440001 -0.773
0.95599997 7.1760001 -0.77700001
0.93699998 7.2119999 -0.78200001
0.91600001 7.2249999 -0.78299999
0.89099997 7.2119999 -0.78100002
0.87199998 7.2449999 -0.78500003
0.85299999 7.2789998 -0.78899997
0.84500003 7.3140001 -0.79400003
0.82599998 7.3499999 -0.79900002
0.80599999 7.382 -0.80299997
0.78500003 7.408 -0.80599999
0.76599997 7.454 -0.81199998
0.74599999 7.494 -0.81699997
0.72600001 7.5279999 -0.82099998
0.71700001 7.5679998 -0.82599998
0.71899998 7.8629999 -0.866
0.95499998 7.0689998 -1.007
0.41499999 8.2440004 -0.91399997
0.39199999 8.3059998 -0.92299998
0.368 8.375 -0.93199998
0.34400001 8.4320002 -0.93900001
0.31999999 8.5039997 -0.949
0.29499999 8.5679998 -0.95700002
0.27000001 8.6420002 -0.96700001
0.25799999 8.698 -0.97500002
0.233 8.7740002 -0.98500001
0.36700001 8.3579998 -0.82800001
0.18000001 8.9049997 -1.002
0.153 8.9860001 -1.013
0.126 9.0679998 -1.024
0.097999997 9.1540003 -1.036
0.083999999 9.257 -1.049
0.055 9.3959999 -1.068
0.026000001 9.533 -1.087
-0.0049999999 9.6809998 -1.107
-0.035999998 9.8039999 -1.123
-0.068000004 9.9700003 -1.146
-0.101 10.127 -1.1670001
-0.12 10.287 -1.188
-0.155 10.443 -1.21
-0.191 10.609 -1.232
0.93800002 7.1129999 -1.0140001
-0.26800001 10.988 -1.283
-0.30599999 11.124 -1.302
-0.34900001 11.365 -1.334
-0.37400001 11.564 -1.3609999
-0.41800001 11.771 -1.3890001
-0.46399999 11.981 -1.418
-0.51099998 12.204 -1.448
-0.56199998 12.463 -1.483
-0.61199999 12.675 -1.512
-0.52399999 12.438 0.333
1.534 6.9250002 -1.071
0.003 9.5790005 -0.92199999
0.082000002 9.1709995 -0.75700003
1.14 6.9289999 -1.059
0.917 7.1259999 -1.015
1.675 6.915 -1.1900001
-0.54299998 12.359 -1.383
2.642 7.6360002 0.142
2.6110001 7.6630001 0.142
2.585 7.664 0.142
2.974 8.8979998 0.132
2.9530001 8.9259996 0.132
2.865 8.9420004 0.132
2.684 8.9060001 0.133
2.6600001 8.9259996 0.133
2.648 8.9379997 0.132
2.625 8.9639997 0.132
2.5869999 8.9390001 0.133
2.5539999 8.9300003 0.133
2.5239999 8.9320002 0.133
2.4949999 8.934 0.133
2.4560001 8.9049997 0.133
2.431 8.9230003 0.133
2.424 8.9540005 0.133
2.4119999 9.0190001 0.132
2.398 9.0810003 0.132
2.3599999 9.1689997 0.131
2.388 9.3970003 0.13
1.915 8.4289999 0.138
1.8890001 8.4350004 0.138
1.8559999 8.4139996 0.138
1.831 8.427 0.138
1.802 8.4209995 0.138
1.778 8.4390001 0.138
1.749 8.4309998 0.138
1.745 8.4759998 0.138
1.712 9.0249996 0.134
1.686 9.0439997 0.133
1.669 9.0290003 0.134
1.64 9.0340004 0.134
1.575 8.8389997 0.13500001
1.5779999 9.0170002 0.134
1.488 9.0 0.134
1.483 9.059 0.134
1.3200001 8.9390001 0.13500001
1.22 8.941 0.13500001
1.164 8.7449999 0.13600001
1.165 8.9589996 0.13500001
0.87400001 7.3000002 0.148
0.861 7.283 0.148
0.89099997 7.1890001 -1.025
1.095 7.191 -0.55900002
0.49000001 7.9710002 0.14300001
0.46799999 8.0220003 0.14300001
0.39300001 8.3050003 0.14
0.37200001 8.4060001 0.14
0.32499999 8.8879995 0.13600001
0.289 8.677 0.138
0.26300001 8.7139997 0.13699999
0.23800001 8.7910004 0.13699999
0.87099999 7.2179999 -1.029
1.285 6.9239998 -1.062
-0.139 10.431 0.124
-0.17299999 10.543 0.123
1.455 6.928 -1.069
0.35600001 8.4130001 -0.83399999
-0.54000002 12.65 0.106
0.38999999 8.276 -0.51099998
-1.376 16.528999 0.075000003
-1.64 18.023001 0.063000001
-1.722 16.416 -0.53100002
0.83099997 7.2740002 -1.0369999
-0.54400003 12.33 -1.012
1.408 6.9200001 -1.066
-0.175 10.483 -1.028
0.45899999 8.0349998 -0.82999998
1.386 6.9200001 -1.0650001
1.336 7.1129999 -0.55500001
1.365 6.9289999 -1.066
2.3399999 7.0900002 -1.1339999
1.353 6.927 -1.0650001
0.33199999 8.493 -0.84399998
-1.773 16.406 -0.52999997
1.33 6.9250002 -1.064
2.6489999 7.5539999 -0.29300001
2.599 7.5650001 -0.292
2.6440001 8.3369999 -0.338
2.615 8.2889996 -0.33500001
2.589 8.2989998 -0.33500001
2.4990001 8.0979996 -0.322
2.306 7.5489998 -0.28600001
2.276 7.5349998 -0.28400001
2.2490001 7.533 -0.28400001
2.2190001 7.5170002 -0.28200001
2.1930001 7.5180001 -0.28200001
2.178 7.5079999 -0.28099999
2.1500001 7.5009999 -0.28
2.1240001 7.4970002 -0.27900001
2.1029999 7.5149999 -0.28
2.069 7.4809999 -0.278
2.043 7.48 -0.27700001
2.0150001 7.4710002 -0.27599999
1.998 7.4549999 -0.27500001
1.974 7.4569998 -0.27500001
1.948 7.4530001 -0.27399999
1.919 7.4380002 -0.273
1.896 7.4460001 -0.273
1.872 7.4460001 -0.27200001
1.845 7.4390001 -0.27200001
1.8279999 7.4219999 -0.27000001
1.803 7.4200001 -0.27000001
1.778 7.4180002 -0.26899999
1.752 7.4120002 -0.26899999
1.727 7.4109998 -0.26800001
1.7 7.3969998 -0.26699999
1.676 7.401 -0.26699999
1.66 7.3839998 -0.266
1.636 7.3870001 -0.26499999
1.613 7.3899999 -0.26499999
1.589 7.3909998 -0.26499999
1.561 7.3730001 -0.264
1.5369999 7.3759999 -0.26300001
1.512 7.369 -0.26300001
1.5 7.3709998 -0.26300001
1.474 7.3600001 -0.26199999
1.449 7.3569999 -0.26100001
1.426 7.3629999 -0.26100001
1.401 7.3540001 -0.26100001
1.376 7.3520002 -0.25999999
1.359 7.388 -0.26199999
1.36 7.461 -0.26699999
1.346 7.5180001 -0.27000001
1.332 7.5799999 -0.273
1.318 7.6430001 -0.27700001
1.3049999 7.7119999 -0.28099999
1.29 7.7729998 -0.285
1.281 7.8740001 -0.29100001
1.42 9.0200005 -0.36199999
1.388 9.0010004 -0.361
1.358 8.9910002 -0.36000001
1.329 8.9870005 -0.359
1.299 8.9799995 -0.359
1.2690001 8.9759998 -0.35800001
1.2410001 8.9759998 -0.35800001
1.255 9.1899996 -0.37099999
0.89499998 7.1810002 -0.245
0.87599999 7.2199998 -0.24699999
1.007 8.684 -0.338
0.977 8.665 -0.33700001
0.94999999 8.6639996 -0.33700001
0.92199999 8.6669998 -0.33700001
0.89399999 8.6619997 -0.336
0.86500001 8.6450005 -0.33500001
0.83700001 8.6350002 -0.33399999
0.82200003 8.6190004 -0.333
0.79400003 8.6090002 -0.33199999
1.262 6.9239998 -1.062
0.40200001 8.3570004 -0.315
0.37400001 8.3280001 -0.31299999
0.34999999 8.3870001 -0.317
0.32800001 8.4980001 -0.32300001
0.278 8.6239996 -0.331
0.266 8.6940002 -0.33500001
0.241 8.7519999 -0.33899999
0.221 9.1300001 -0.36199999
-0.111 10.424 -0.442
-0.17900001 10.521 -0.44800001
-0.33500001 11.272 -0.495
-0.498 12.169 -0.551
-0.54400003 12.343 -0.56199998
-0.79000002 16.542 -0.82200003
-0.84500003 16.583 -0.82499999
-0.68599999 13.157 -0.61199999
-0.92199999 16.566999 -0.824
-0.97500002 16.584 -0.82499999
-0.87800002 14.228 -0.67900002
-1.08 16.591999 -0.82599998
-1.135 16.618 -0.82800001
-1.0599999 14.874 -0.72000003
-1.109 15.221 -0.741
-1.186 15.588 -0.764
-1.266 15.964 -0.78799999
1.24 6.9260001 -1.061
-1.4400001 16.809 -0.84100002
-1.538 17.299 -0.87199998
-1.633 17.726999 -0.89899999
-1.604 16.580999 -0.82800001
-1.655 16.563999 -0.82700002
-1.697 16.462 -0.82099998
-1.749 16.458 -0.82099998
-1.799 16.434999 -0.81999999
-1.848 16.413 -0.81900001
-1.895 16.365999 -0.81599998
-1.9220001 16.372999 -0.81699997
-1.9630001 16.278999 -0.81199998
-2.0109999 16.250999 -0.81
1.187 7.118 -0.55299997
-1.825 16.396999 -0.52999997
-0.986 16.702 -0.54100001
1.2180001 6.928 -1.061
1.207 6.928 -1.061
1.183 6.9219999 -1.059
-1.874 16.371 -0.52899998
1.133 7.2069998 -0.56099999
1.161 6.9239998 -1.059
2.641 7.4850001 -0.52899998
2.6040001 7.494 -0.528
2.6010001 7.5599999 -0.53399998
2.566 7.5359998 -0.53100002
2.53 7.5079999 -0.52700001
2.5039999 7.507 -0.52600002
2.4790001 7.5110002 -0.52600002
2.4590001 7.4920001 -0.52399999
2.427 7.4710002 -0.52100003
2.395 7.454 -0.51899999
2.3699999 7.4580002 -0.51800001
2.3369999 7.4349999 -0.51499999
2.3099999 7.4310002 -0.514
2.283 7.4250002 -0.51300001
2.2679999 7.4190001 -0.51200002
2.24 7.4109998 -0.51099998
2.211 7.3990002 -0.509
2.1830001 7.3899999 -0.50700003
2.1559999 7.3839998 -0.50599998
2.131 7.3829999 -0.505
2.099 7.3610001 -0.50300002
2.086 7.3579998 -0.50199997
2.059 7.3520002 -0.50099999
2.036 7.3579998 -0.50099999
2.007 7.3429999 -0.49900001
1.9809999 7.3400002 -0.498
1.9579999 7.3439999 -0.498
1.929 7.3270001 -0.49599999
1.916 7.3260002 -0.495
1.888 7.3150001 -0.493
1.8609999 7.3060002 -0.49200001
1.836 7.302 -0.491
1.8099999 7.2940001 -0.49000001
1.785 7.2940001 -0.48899999
1.76 7.2919998 -0.48899999
1.745 7.2789998 -0.48699999
1.719 7.2690001 -0.486
1.6950001 7.2719998 -0.48500001
1.67 7.2680001 -0.48500001
1.646 7.2670002 -0.484
1.625 7.2779999 -0.48500001
1.6 7.2750001 -0.484
1.572 7.2550001 -0.48100001
1.562 7.2670002 -0.48199999
1.536 7.257 -0.48100001
1.51 7.2480001 -0.47999999
1.485 7.2410002 -0.47799999
1.462 7.244 -0.47799999
1.439 7.2459998 -0.47799999
1.415 7.2449999 -0.47799999
1.404 7.2490001 -0.47799999
0.93400002 7.1500001 -0.46200001
0.90799999 7.119 -0.45899999
0.88599998 7.1259999 -0.45899999
1.118 6.9349999 -1.059
0.528 7.8239999 -0.51999998
0.51599997 7.8309999 -0.51999998
-0.116 10.442 0.36700001
-1.697 16.572001 -1.33
1.064 6.9429998 -1.059
0.354 8.3280001 -0.565
0.331 8.4110003 -0.57300001
0.30700001 8.4770002 -0.579
0.28299999 8.5319996 -0.58399999
0.259 8.6219997 -0.59200001
0.233 8.6529999 -0.59500003
0.221 8.7209997 -0.60100001
0.19499999 8.7889996 -0.60699999
0.169 8.8540001 -0.61299998
0.14300001 8.9320002 -0.62
2.161 7.0079999 -1.2309999
0.088 9.0780001 -0.634
0.061000001 9.2119999 -0.64600003
0.048 9.3430004 -0.65799999
0.018999999 9.4650002 -0.66900003
-0.0099999998 9.618 -0.68300003
-0.041000001 9.7519999 -0.69499999
-0.071999997 9.901 -0.70899999
-0.105 10.056 -0.72299999
-0.138 10.211 -0.73799998
-0.17200001 10.36 -0.75099999
-0.191 10.545 -0.76800001
-0.228 10.725 -0.78500003
-0.266 10.911 -0.80199999
-0.30399999 11.086 -0.81800002
-0.34400001 11.272 -0.83600003
-0.38600001 11.48 -0.85500002
-0.428 11.654 -0.87099999
-0.45500001 11.884 -0.89200002
-0.55000001 12.354 -0.93599999
-0.778 16.514999 -1.319
-0.70700002 13.136 -1.008
-0.76300001 13.408 -1.033
-0.79900002 13.66 -1.057
-0.85600001 13.896 -1.079
-0.92000002 14.219 -1.109
-1.1289999 16.698 -1.337
-1.052 14.831 -1.166
1.026 7.4980001 0.465
2.0339999 8.5459995 -0.13500001
-1.252 15.902 -1.265
-1.715 18.179001 -1.477
-1.816 18.634001 -1.52
1.073 6.9299998 -1.057
-1.7690001 16.761 -1.348
-1.831 16.353001 -1.311
2.5880001 7.2670002 -0.89399999
2.569 7.2859998 -0.89499998
2.5739999 7.3369999 -0.90200001
2.559 7.369 -0.90600002
2.5380001 7.381 -0.90700001
2.4979999 7.342 -0.89999998
2.4790001 7.3610001 -0.90100002
2.4530001 7.362 -0.89999998
2.378 7.289 -0.88700002
2.3640001 7.2849998 -0.88599998
2.348 7.3150001 -0.889
2.276 7.1690001 -0.86699998
2.2880001 7.2839999 -0.88300002
