# .PCD v0.7 - Point Cloud Data file format
VERSION 0.7
FIELDS x y z
SIZE 4 4 4
TYPE F F F
COUNT 1 1 1
WIDTH 113
HEIGHT 1
VIEWPOINT 0 0 0 1 0 0 0
POINTS 113
DATA ascii
-17.742001 20.436001 -1.0
-18.056999 20.667999 -1.017
-18.4 20.795 -1.031
-18.433001 20.701 -1.029
-18.466999 20.608999 -1.027
-18.479 20.492001 -1.024
-18.568001 20.462 -1.025
-18.52 20.344 -1.02
-18.414 20.1 -1.0089999
-18.507999 20.075001 -1.011
-18.431999 19.868 -1.002
-18.268999 19.566999 -0.98699999
-18.541 19.733999 -1.001
-21.236 20.164 -0.73299998
-18.672001 19.687 -1.003
-18.723 19.617001 -1.003
-18.733 19.504 -0.99900001
-18.740999 19.391001 -0.99599999
-18.875 19.406 -1.0
-19.159 19.576 -1.015
-19.353001 19.650999 -1.023
-19.353001 19.589001 -1.021
-19.499001 19.613001 -1.026
-19.441999 19.433001 -1.0190001
-19.549999 19.417999 -1.022
-19.625 19.371 -1.023
-19.961 19.579 -1.04
-20.068001 19.561001 -1.043
-20.223 19.650999 -1.051
-20.200001 19.504999 -1.045
-20.34 19.518 -1.05
-20.663 19.704 -1.066
-20.941999 19.844999 -1.08
-20.986 19.761 -1.0779999
-21.007 19.657 -1.076
-21.209999 19.785 -1.086
-21.393 19.830999 -1.094
-21.521999 19.825001 -1.098
-21.634001 19.802999 -1.101
-22.478001 20.319 -1.1440001
-22.326 20.054001 -1.131
-22.226999 19.902 -1.123
-22.221001 19.771 -1.119
-22.332001 19.743999 -1.122
-22.107 19.422001 -1.105
-22.254999 19.429001 -1.11
-22.294001 19.339001 -1.109
-22.087999 19.039 -1.0930001
-22.202999 19.016001 -1.097
-22.179001 18.936001 -1.094
-23.636 20.054001 -1.175
-18.622999 19.697001 -1.002
-18.627001 20.566 -0.866
-18.752001 20.573999 -0.86900002
-19.110001 19.999001 -0.86199999
-19.108 19.747999 -0.85500002
-19.768999 20.302 -0.88800001
-19.728001 19.82 -0.87400001
-19.771 19.738001 -0.87300003
-20.524 20.361 -0.91000003
-20.631001 20.337999 -0.91299999
-20.565001 20.146 -0.90600002
-20.438999 19.959999 -0.89700001
-20.743999 20.131001 -0.91000003
-20.802999 20.061001 -0.91000003
-20.733999 19.870001 -0.903
-21.238001 20.225 -0.92699999
-21.040001 19.910999 -0.91299999
-21.202 19.938 -0.91799998
-21.169001 19.844999 -0.91500002
-21.441 19.973 -0.926
-21.42 19.827999 -0.921
-21.671 19.809 -0.92799997
-22.229 20.190001 -0.954
-22.537001 20.341 -0.96600002
-22.563 20.299999 -0.96600002
-22.660999 20.26 -0.96799999
-22.861 20.309 -0.97500002
-23.079 20.372999 -0.98299998
-23.204 20.355 -0.986
-23.181 20.205999 -0.98100001
-23.211 20.104 -0.98000002
-22.177 19.149 -0.926
-23.386999 20.065001 -0.98400003
-22.648001 19.308001 -0.94300002
-18.709999 19.320999 -1.147
-18.978001 19.351999 -1.1569999
-18.938 19.190001 -1.15
-19.377001 19.327999 -1.171
-19.406 19.237 -1.168
-19.788 19.249001 -1.183
-20.122 19.450001 -1.202
-20.152 19.419001 -1.202
-20.18 19.323 -1.199
-20.431999 19.441999 -1.2130001
-20.288 19.184 -1.198
-20.759001 19.504999 -1.227
-20.855 19.473 -1.229
-20.754999 19.257999 -1.2180001
-21.035999 19.396 -1.233
-21.42 19.563 -1.253
-21.707001 19.700001 -1.268
-21.679001 19.551001 -1.262
-21.737 19.48 -1.262
-21.816 19.427 -1.263
-21.742001 19.24 -1.2539999
-21.780001 19.212 -1.255
-21.763 19.076 -1.25
-21.923 19.094999 -1.256
-21.830999 18.895 -1.2460001
-21.872999 18.811001 -1.245
-21.952999 18.76 -1.2460001
-22.051001 18.725 -1.249
