# .PCD v0.7 - Point Cloud Data file format
VERSION 0.7
FIELDS x y z
SIZE 4 4 4
TYPE F F F
COUNT 1 1 1
WIDTH 185
HEIGHT 1
VIEWPOINT 0 0 0 1 0 0 0
POINTS 185
DATA ascii
-1.561 6.8800001 -1.2410001
-1.585 6.8829999 -1.243
-1.601 6.8569999 -1.239
-1.582 6.835 -1.502
-2.0739999 10.005 -0.866
-2.1010001 9.9770002 -0.86400002
-2.1719999 10.159 -0.884
-2.1760001 10.022 -0.87
-1.9349999 8.7670002 -0.73699999
-1.962 8.757 -0.73699999
-2.0710001 9.9890003 -0.37400001
-2.1129999 10.037 -0.377
-2.125 9.9370003 -0.37200001
-1.726 7.698 -1.5700001
-1.574 6.9320002 -1.402
-1.5829999 6.8720002 -1.39
-1.61 6.888 -1.395
-2.1040001 10.057 -0.063000001
-2.138 10.064 -0.064000003
-2.1659999 10.04 -0.063000001
-2.0780001 10.036 0.55599999
-2.1170001 10.066 0.55699998
-2.168 10.145 0.56
-2.0680001 10.011 -0.99699998
-2.1099999 10.086 0.19
-2.1470001 10.107 0.19
-2.22 10.342 -1.039
-1.927 8.8240004 -0.85799998
-1.712 7.7059999 -0.72399998
-1.739 7.7140002 -0.72600001
-2.099 10.001 -1.248
-2.164 10.234 -1.283
-2.336 10.884 -1.378
-1.961 8.9779997 -1.103
-1.5470001 6.8470001 -0.79500002
-1.576 6.8779998 -0.801
-1.5930001 6.8520002 -0.79799998
-2.086 10.032 -0.93699998
-2.1589999 10.218 -0.958
-2.3069999 10.743 -1.0190001
-2.0940001 9.6199999 -0.89200002
-1.556 6.888 -1.571
-1.573 6.8649998 -1.566
-1.637 7.0450001 -1.612
-2.0710001 9.9899998 0.36300001
-2.1040001 9.9949999 0.36300001
-2.135 9.9870005 0.36300001
-1.704 7.7119999 -1.497
-1.534 6.829 -1.313
-1.552 6.8049998 -1.309
-1.574 6.8039999 -1.309
-1.5700001 6.9749999 -0.71499997
-2.1129999 9.8529997 0.30899999
-2.086 10.033 -0.191
-2.1240001 10.058 -0.192
-2.2119999 10.309 -0.20200001
-1.58 6.9679999 -0.71499997
-1.702 7.7020001 -1.3329999
-1.535 6.8330002 -1.17
-1.5549999 6.8200002 -1.168
-1.5779999 6.8210001 -1.169
-2.0580001 9.9610004 0.23899999
-2.079 9.9029999 0.23899999
-2.099 10.018 -0.0099999998
-2.099 9.9399996 -0.0080000004
-2.142 9.9890003 -0.0089999996
-2.1099999 10.054 -0.55500001
-2.1830001 10.238 -0.56999999
-1.664 7.3969998 -0.73199999
-1.682 7.4980001 -1.239
-2.076 10.032 -1.298
-2.102 10.0 -1.295
-2.188 10.247 -1.332
-2.2880001 10.629 -1.39
-2.0280001 9.2939997 -1.191
-1.831 8.2790003 -1.04
-1.577 7.0440001 -0.85600001
-1.585 6.8829999 -1.451
-2.0799999 9.8280001 0.23800001
-2.0739999 10.034 -0.31099999
-2.096 9.9809999 -0.30899999
-2.178 10.21 -0.32100001
-2.128 10.134 -0.43799999
-2.1789999 10.215 -0.44400001
-1.556 6.8439999 -1.12
-2.0739999 10.031 -0.80599999
-2.0999999 10.002 -0.80299997
-2.1359999 10.016 -0.80599999
-2.224 10.264 -0.83099997
-2.04 9.3570004 -0.74000001
-2.069 9.3509998 -0.74000001
-1.566 6.8590002 -1.638
-1.563 6.796 -1.623
-1.594 6.835 -1.6339999
-2.105 10.031 0.442
-2.177 10.214 0.44600001
-2.1589999 10.052 0.442
-2.092 10.069 -1.188
-2.1199999 10.045 -1.1849999
-2.214 10.329 -1.226
-2.197 10.097 -1.1950001
-1.975 8.9530001 -1.0369999
-1.698 7.6009998 -0.85100001
-1.564 6.9629998 -0.764
-1.572 6.8979998 -0.755
-1.591 6.881 -0.75400001
-1.591 6.8499999 -1.123
-2.099 9.9870005 -0.61799997
-2.1860001 10.244 -0.639
-2.0769999 10.029 -1.3710001
-2.105 10.005 -1.369
-2.1429999 10.027 -1.373
-2.085 9.6070004 -1.308
-1.811 8.2019997 -1.089
-1.5319999 6.8639998 -0.88
-1.551 6.848 -0.87800002
-1.577 6.8660002 -0.88200003
-1.5549999 6.8460002 -1.059
-2.0780001 10.01 0.061999999
-2.102 9.9680004 0.063000001
-2.178 10.171 0.059999999
-1.5779999 6.8449998 -1.059
-2.0940001 9.9809999 -0.99400002
-1.586 6.8330002 -1.058
-2.141 10.048 -1.003
-2.207 10.307 0.19
-1.969 8.9420004 -1.329
-1.569 6.961 -1.467
-1.571 6.8699999 -1.447
-1.5650001 6.8889999 -0.83399999
-2.069 10.0 -0.61799997
-2.0969999 10.004 -0.123
-2.1459999 10.083 -0.126
-1.5829999 6.869 -0.83099997
-2.0699999 9.9759998 -1.104
-2.1340001 10.127 -1.124
-2.2780001 10.65 -1.194
-1.973 9.0679998 -0.98799998
-2.096 10.028 -1.502
-2.1199999 9.9860001 -1.4960001
-2.125 9.8559999 -1.476
-2.1689999 9.9840002 -1.497
-2.092 10.008 -0.25099999
-2.1670001 10.212 -0.26100001
-1.65 7.2969999 -1.063
-1.566 6.8319998 -0.98799998
-1.574 6.8509998 -1.505
-1.609 6.8239999 -0.98799998
-2.0409999 9.3409996 -1.572
-1.846 8.3389997 -1.391
-2.0869999 10.039 0.31099999
-2.1210001 10.04 0.31099999
-2.092 9.9849997 0.126
-2.102 9.875 0.126
-2.089 10.015 0.49000001
-2.122 10.014 0.49000001
-2.1040001 9.8500004 0.48500001
-1.581 6.8569999 -1.124
-2.092 9.9750004 -0.736
-2.085 9.8640003 -0.72600001
-2.3080001 10.762 -0.81099999
-2.2049999 10.12 -0.75099999
-2.0810001 10.014 -0.67799997
-2.125 10.07 -0.68400002
-2.1159999 9.8719997 -0.667
-2.3789999 10.922 -0.75999999
-2.0999999 10.106 -1.615
-2.0929999 9.9879999 -1.596
-2.0899999 9.8179998 -1.568
-2.1659999 10.025 -1.604
-1.929 8.7790003 -1.391
-1.646 7.3590002 -1.146
-2.0940001 10.024 -0.50199997
-2.1199999 10.07 -0.50599998
-2.177 10.18 -0.514
-1.822 8.1610003 -1.202
-1.564 6.7270002 -0.97100002
-1.795 8.0670004 -1.476
-1.552 6.8520002 -1.5039999
-2.086 10.036 -1.059
-2.1140001 10.014 -1.057
-2.1889999 10.286 -1.092
-2.132 9.8719997 -1.041
-1.853 8.4680004 -0.86500001
-1.632 7.2360001 -1.312
