# .PCD v0.7 - Point Cloud Data file format
VERSION 0.7
FIELDS x y z
SIZE 4 4 4
TYPE F F F
COUNT 1 1 1
WIDTH 122
HEIGHT 1
VIEWPOINT 0 0 0 1 0 0 0
POINTS 122
DATA ascii
13.365 -15.731 -0.71399999
11.927 -15.867 -0.91900003
12.091 -15.123 -0.89200002
12.035 -15.95 -1.271
11.99 -15.788 -1.2589999
11.974 -15.665 -1.252
11.95 -15.533 -1.243
11.933 -15.46 -1.238
11.855 -14.871 -1.2
12.01 -14.968 -1.2130001
12.035 -14.951 -1.2130001
12.093 -14.927 -1.214
12.154 -14.906 -1.216
12.206 -14.874 -1.216
12.904 -14.8 -1.245
11.929 -15.742 -1.614
11.89 -15.589 -1.601
11.866 -15.457 -1.59
11.87 -15.361 -1.5829999
11.918 -15.324 -1.5829999
12.041 -15.382 -1.594
12.224 -17.101999 -1.485
12.184 -16.934 -1.473
12.139 -16.759001 -1.459
12.094 -16.586 -1.446
12.043 -16.299 -1.425
12.041 -16.191 -1.418
12.004 -16.087 -1.409
11.977 -15.946 -1.399
11.961 -15.718 -1.3839999
11.934 -15.58 -1.373
11.926 -15.468 -1.3660001
11.905 -15.341 -1.357
11.958 -14.967 -1.336
12.0 -14.923 -1.335
12.056 -14.898 -1.337
12.09 -14.891 -1.3380001
12.14 -14.858 -1.3380001
12.215 -14.853 -1.342
12.283 -14.841 -1.345
12.337 -14.812 -1.345
12.396 -14.788 -1.347
12.458 -14.767 -1.349
12.512 -14.784 -1.353
12.575 -14.765 -1.355
12.013 -15.163 -0.99400002
11.997 -16.002001 -0.801
12.2 -15.201 -1.003
12.246 -15.161 -1.003
13.199 -14.944 -1.031
13.268 -14.928 -1.033
13.278 -14.845 -1.029
12.014 -14.94 -1.447
12.123 -15.5 -0.78500003
12.12 -14.879 -1.449
12.151 -14.87 -1.45
12.657 -14.766 -1.359
12.776 -15.268 -0.796
12.101 -15.175 -0.99800003
12.272 -14.827 -1.454
12.847 -14.799 -1.3710001
12.333 -14.805 -1.455
12.904 -14.771 -1.373
12.399 -14.789 -1.4579999
12.971 -14.754 -1.375
12.467 -14.776 -1.461
13.043 -14.789 -1.381
12.527 -14.753 -1.4630001
13.136 -14.8 -1.387
13.216 -14.796 -1.391
11.938 -15.787 -1.501
11.95 -15.7 -1.495
11.924 -15.565 -1.485
11.911 -15.447 -1.476
11.906 -15.34 -1.4680001
11.945 -15.292 -1.467
11.899 -15.184 -1.457
11.897 -15.084 -1.45
11.926 -15.023 -1.448
11.967 -14.977 -1.447
12.038 -15.491 -0.78200001
12.083 -14.93 -1.45
12.626 -15.283 -0.792
12.703 -15.279 -0.79400003
12.212 -14.848 -1.452
12.828 -15.282 -0.79799998
12.925 -15.299 -0.80199999
13.014 -15.307 -0.80500001
13.103 -15.313 -0.80800003
13.199 -15.328 -0.81199998
12.574 -14.761 -1.466
12.647 -14.753 -1.47
12.712 -14.734 -1.472
12.804 -14.747 -1.478
12.877 -14.737 -1.4809999
12.96 -14.738 -1.4859999
13.044 -14.74 -1.4910001
13.107 -14.765 -1.4960001
12.739 -14.768 -1.364
11.947 -15.842 -1.163
12.021 -15.836 -1.166
12.08 -15.811 -1.1670001
11.979 -15.627 -1.153
11.946 -14.99 -1.117
11.967 -14.968 -1.1160001
12.025 -14.944 -1.118
12.318 -15.113 -1.1390001
12.212 -14.887 -1.123
12.291 -14.887 -1.126
12.387 -14.908 -1.131
12.409 -14.887 -1.131
12.494 -14.894 -1.135
12.502 -14.809 -1.131
12.55 -14.771 -1.131
12.656 -14.802 -1.138
12.744 -14.81 -1.142
12.818 -14.802 -1.145
12.853 -14.795 -1.146
13.055 -14.839 -1.158
11.893 -16.188999 -0.69
11.938 -16.143 -0.68900001
13.309 -15.765 -0.71399999
