# .PCD v0.7 - Point Cloud Data file format
VERSION 0.7
FIELDS x y z
SIZE 4 4 4
TYPE F F F
COUNT 1 1 1
WIDTH 1726
HEIGHT 1
VIEWPOINT 0 0 0 1 0 0 0
POINTS 1726
DATA ascii
22.237 -12.893 -0.33399999
22.243 -12.803 -0.333
22.281 -12.732 -0.333
22.332001 -12.622 -0.333
22.313 -12.518 -0.331
22.296 -12.417 -0.33000001
22.289 -12.322 -0.329
22.249001 -12.208 -0.32699999
22.219 -12.101 -0.32499999
22.215 -12.053 -0.32499999
22.202 -11.956 -0.324
22.202 -11.866 -0.32300001
22.165001 -11.757 -0.32100001
22.158001 -11.664 -0.31999999
22.143 -11.568 -0.31900001
22.125999 -11.47 -0.317
22.096001 -11.411 -0.31600001
22.089001 -11.319 -0.315
22.087 -11.231 -0.31400001
22.069 -11.134 -0.31299999
21.535999 -8.2709999 0.73400003
21.993 -10.923 -0.31
21.959 -10.82 -0.308
21.955 -10.775 -0.308
21.983 -10.704 -0.308
21.882999 -10.316 -0.30199999
21.861 -10.222 -0.301
21.846001 -10.173 -0.30000001
21.936001 -10.132 -0.30199999
22.091 -10.119 -0.30399999
22.110001 -10.044 -0.30399999
22.08 -9.9469995 -0.303
22.08 -9.8629999 -0.30199999
22.039 -9.7620001 -0.30000001
22.009001 -9.7069998 -0.29899999
21.999001 -9.6199999 -0.29800001
21.997999 -9.5380001 -0.29800001
21.976 -9.4460001 -0.296
21.886 -9.1639996 -0.292
21.933001 -9.1029997 -0.29300001
21.879 -9.04 -0.29100001
21.584999 -8.8389997 -0.28400001
21.565001 -8.7510004 -0.28299999
21.566 -8.6730003 -0.28200001
21.570999 -8.5959997 -0.28200001
21.559 -8.5129995 -0.28099999
21.548 -8.4309998 -0.28
21.525999 -8.3830004 -0.27900001
21.504 -8.2969999 -0.278
21.461 -8.2030001 -0.27700001
18.552999 -6.954 -0.20999999
18.587999 -6.901 -0.211
18.597 -6.8709998 -0.211
18.625999 -6.8150001 -0.211
18.622999 -6.7480001 -0.20999999
18.657 -6.6939998 -0.211
18.687 -6.6389999 -0.211
18.708 -6.5799999 -0.211
18.729 -6.5209999 -0.211
18.77 -6.4689999 -0.211
18.771 -6.4369998 -0.211
18.809999 -6.3839998 -0.211
18.827999 -6.3239999 -0.211
18.857 -6.2680001 -0.212
18.871 -6.2069998 -0.211
18.907 -6.1529999 -0.212
21.212 -6.8330002 -0.26199999
21.205 -6.7940001 -0.26199999
21.211 -6.723 -0.26100001
21.200001 -6.6459999 -0.26100001
21.194 -6.5710001 -0.25999999
21.174 -6.4920001 -0.259
21.177 -6.4200001 -0.259
21.155001 -6.3410001 -0.25799999
21.142 -6.3010001 -0.257
21.112 -6.2189999 -0.25600001
20.952999 -6.1009998 -0.252
20.907 -6.0159998 -0.25099999
20.885 -5.9390001 -0.25
20.879 -5.8660002 -0.25
20.874001 -5.7940001 -0.249
20.854 -5.7529998 -0.249
20.832001 -5.677 -0.248
20.816 -5.6020002 -0.24699999
20.792999 -5.526 -0.24600001
20.782 -5.4530001 -0.245
20.778999 -5.3829999 -0.245
20.785999 -5.3499999 -0.245
20.77 -5.276 -0.244
20.757 -5.2030001 -0.244
20.74 -5.1300001 -0.243
20.726999 -5.0580001 -0.242
20.721001 -4.987 -0.242
20.700001 -4.9130001 -0.241
20.690001 -4.8769999 -0.241
20.674 -4.8039999 -0.23999999
20.664 -4.7340002 -0.23899999
20.655001 -4.6630001 -0.23899999
20.643 -4.592 -0.23800001
20.624001 -4.52 -0.23800001
20.612 -4.4499998 -0.237
20.601999 -4.414 -0.237
20.58 -4.3410001 -0.236
20.565001 -4.2709999 -0.235
20.556 -4.2010002 -0.235
20.546 -4.132 -0.234
20.533001 -4.0619998 -0.234
20.507 -3.99 -0.233
20.476 -3.951 -0.23199999
20.472 -3.8829999 -0.23199999
20.466999 -3.816 -0.23100001
20.455 -3.747 -0.23100001
20.452999 -3.6800001 -0.23100001
20.438999 -3.6110001 -0.23
20.438 -3.5450001 -0.23
20.414 -3.5079999 -0.229
20.396999 -3.4389999 -0.229
20.371 -3.369 -0.228
20.368999 -3.303 -0.228
20.368 -3.237 -0.227
20.389999 -3.175 -0.228
20.4 -3.1110001 -0.228
20.41 -3.0799999 -0.228
20.42 -3.0150001 -0.228
20.431 -2.9519999 -0.228
20.436001 -2.8870001 -0.228
20.469 -2.826 -0.228
20.51 -2.766 -0.229
20.532 -2.7030001 -0.229
20.532 -2.671 -0.229
20.559 -2.608 -0.229
20.566999 -2.5439999 -0.229
20.58 -2.48 -0.23
20.606001 -2.4170001 -0.23
20.615999 -2.3529999 -0.23
20.632999 -2.289 -0.23
20.656 -2.2590001 -0.23100001
20.657 -2.1930001 -0.23
20.674 -2.1289999 -0.23100001
20.702 -2.0669999 -0.23100001
20.719 -2.003 -0.23100001
20.735001 -1.938 -0.23199999
20.743 -1.873 -0.23199999
20.756001 -1.842 -0.23199999
20.761 -1.777 -0.23199999
20.757 -1.711 -0.23199999
20.77 -1.646 -0.23199999
20.781 -1.581 -0.23199999
20.822001 -1.518 -0.233
20.841 -1.454 -0.233
20.853001 -1.4220001 -0.233
20.881001 -1.358 -0.234
20.933001 -1.296 -0.235
21.003 -1.234 -0.236
21.080999 -1.1720001 -0.23800001
21.162001 -1.11 -0.23899999
21.245001 -1.0470001 -0.241
21.316999 -1.017 -0.242
21.372 -0.95300001 -0.243
21.466999 -0.88999999 -0.245
21.597 -0.82700002 -0.248
21.676001 -0.76200002 -0.25
21.764 -0.69700003 -0.25099999
21.846001 -0.63099998 -0.25299999
21.924999 -0.59899998 -0.255
22.013 -0.53200001 -0.257
22.108 -0.465 -0.259
22.195 -0.39700001 -0.25999999
22.292999 -0.329 -0.26199999
22.389 -0.25999999 -0.264
22.464001 -0.191 -0.266
22.554001 -0.156 -0.26800001
22.631001 -0.086000003 -0.26899999
22.629 -0.014 -0.26899999
22.733 0.0049999999 -0.38800001
23.044001 0.18700001 -0.396
23.149 0.26100001 -0.39899999
23.254 0.33500001 -0.40200001
23.334999 0.41 -0.40400001
23.583 0.48800001 -0.41
23.638 0.56400001 -0.412
23.700001 0.63999999 -0.414
23.759001 0.67900002 -0.41499999
23.83 0.75599998 -0.417
23.889999 0.833 -0.419
23.938999 0.91000003 -0.41999999
23.966 0.98699999 -0.421
24.039 1.0650001 -0.42300001
24.125 1.145 -0.42500001
24.184999 1.186 -0.42699999
24.257 1.266 -0.42899999
24.315001 1.346 -0.43000001
24.381001 1.426 -0.43200001
24.444 1.507 -0.43399999
24.507 1.589 -0.43599999
24.569 1.67 -0.43700001
24.639 1.714 -0.43900001
24.695 1.796 -0.44100001
24.764999 1.8789999 -0.44299999
24.819 1.962 -0.44400001
24.493999 2.013 -0.43599999
24.413 2.0840001 -0.43399999
24.451 2.164 -0.435
24.438999 2.2019999 -0.435
24.440001 2.28 -0.435
24.495001 2.362 -0.43700001
24.559 2.447 -0.43900001
24.636 2.533 -0.44100001
24.714001 2.619 -0.44299999
24.757 2.7019999 -0.44499999
24.827999 2.75 -0.447
24.909 2.8380001 -0.449
24.975 2.925 -0.45100001
25.033001 3.0120001 -0.45300001
25.113001 3.102 -0.45500001
25.191 3.1919999 -0.45699999
25.252001 3.28 -0.45899999
25.32 3.329 -0.461
25.386999 3.4189999 -0.463
25.466999 3.5120001 -0.46599999
25.545 3.6040001 -0.46799999
25.614 3.6960001 -0.47
25.681999 3.789 -0.472
25.834 3.9360001 -0.477
26.452999 4.1160002 -0.493
22.011999 3.4909999 -0.37599999
21.940001 3.55 -0.375
21.905001 3.615 -0.37400001
21.881001 3.6819999 -0.37400001
21.856001 3.7490001 -0.37400001
21.858 3.7839999 -0.37400001
21.882999 3.8599999 -0.375
21.924 3.938 -0.37599999
22.266001 4.072 -0.38600001
27.454 5.1160002 -0.52399999
27.530001 5.2199998 -0.52600002
27.674 5.3829999 -0.52999997
27.561001 5.4499998 -0.528
27.608999 5.5500002 -0.52999997
27.656 5.6500001 -0.53100002
27.691 5.7480001 -0.53299999
27.723 5.8460002 -0.53399998
27.785 5.9499998 -0.53600001
27.815001 6.0019999 -0.537
27.851999 6.1020002 -0.53899997
27.893 6.2030001 -0.54000002
28.709999 6.48 -0.56300002
28.822001 6.6009998 -0.56599998
21.469999 -8.1300001 0.73100001
15.128 -16.73 -1.609
18.58 -7.177 -1.168
21.608999 -8.0270004 0.73299998
21.655001 -7.8899999 0.73299998
21.646 -7.8099999 0.73199999
21.632999 -7.7280002 0.73100001
21.601999 -7.6789999 0.73000002
21.586 -7.5970001 0.72899997
21.58 -7.5190001 0.72899997
19.073 -23.105 -0.57700002
19.143 -23.042 -0.57599998
19.101999 -22.847 -0.57200003
19.098 -22.695999 -0.56900001
19.143 -22.606001 -0.56800002
19.096001 -22.478001 -0.56400001
19.136999 -22.382999 -0.56300002
19.061001 -22.153 -0.55699998
18.979 -21.92 -0.551
18.909 -21.700001 -0.546
18.91 -21.563999 -0.54299998
18.926001 -21.445999 -0.54100001
18.844999 -21.288 -0.537
18.816 -21.121 -0.53299999
18.832001 -21.004999 -0.53100002
18.837 -20.879 -0.52899998
18.806999 -20.715 -0.52499998
18.805 -20.582001 -0.52200001
18.766001 -20.410999 -0.51800001
18.774 -20.355 -0.51700002
18.733999 -20.184999 -0.51300001
18.754999 -20.080999 -0.51200002
18.783001 -19.983999 -0.50999999
18.677 -19.747999 -0.50400001
18.659 -19.605 -0.50099999
18.667999 -19.492001 -0.49900001
18.691999 -19.455 -0.49900001
18.639 -19.278 -0.495
18.591 -19.108 -0.49000001
18.624001 -19.021999 -0.48899999
18.573 -18.851 -0.48500001
18.549 -18.709 -0.48199999
18.603001 -18.646999 -0.48199999
18.601 -18.586 -0.48100001
18.674 -18.542 -0.48199999
18.698999 -18.451 -0.47999999
18.73 -18.365999 -0.479
18.693001 -18.215 -0.47600001
19.018999 -18.416 -0.486
19.032 -18.313 -0.484
19.188999 -18.406 -0.48899999
19.702999 -18.780001 -0.505
19.733 -18.690001 -0.50400001
19.837 -18.671 -0.50599998
20.030001 -18.733999 -0.50999999
20.025 -18.612 -0.50800002
19.652 -17.532 -0.48199999
19.493999 -17.282 -0.47499999
19.559999 -17.285999 -0.47600001
19.753 -17.344999 -0.48100001
19.705999 -17.195 -0.477
19.632 -17.021999 -0.47299999
19.681999 -16.958 -0.47299999
19.834 -16.98 -0.47600001
19.922001 -16.948 -0.477
19.924 -16.896 -0.477
20.016001 -16.865 -0.47799999
20.084999 -16.816 -0.47799999
20.15 -16.763 -0.479
20.257999 -16.746 -0.48100001
21.570999 -7.4400001 0.72799999
20.441 -16.681 -0.48300001
20.503 -16.677999 -0.484
20.650999 -16.691 -0.48800001
20.74 -16.655001 -0.48899999
20.851 -16.636999 -0.491
20.976 -16.629 -0.493
21.034 -16.568001 -0.49399999
21.129 -16.535 -0.495
21.202999 -16.540001 -0.49700001
21.309 -16.514999 -0.498
21.51 -16.562 -0.50300002
21.538 -16.476 -0.50199997
21.639 -16.445999 -0.50400001
21.761 -16.431 -0.50599998
21.858999 -16.396999 -0.50800002
21.955 -16.415001 -0.50999999
22.115999 -16.427 -0.514
22.183001 -16.370001 -0.514
22.273001 -16.327999 -0.51499999
22.433001 -16.337 -0.51899999
22.563 -16.323999 -0.52200001
22.802999 -16.011 -0.52200001
19.24 -13.424 -0.40700001
22.767 -15.773 -0.51800001
22.728001 -15.693 -0.51599997
22.707001 -15.574 -0.51300001
22.695 -15.461 -0.51099998
22.656 -15.331 -0.509
22.642 -15.218 -0.50700003
22.629999 -15.107 -0.505
22.611 -14.992 -0.50300002
22.594 -14.879 -0.50099999
22.552 -14.801 -0.49900001
22.542 -14.693 -0.49700001
22.511999 -14.573 -0.495
22.500999 -14.465 -0.493
22.496 -14.362 -0.491
22.462999 -14.242 -0.48899999
22.452999 -14.138 -0.48699999
22.414 -14.064 -0.48500001
22.386999 -13.95 -0.48300001
22.371 -13.842 -0.48100001
22.360001 -13.739 -0.47999999
22.347 -13.634 -0.47799999
22.334999 -13.531 -0.47600001
22.312 -13.421 -0.47400001
22.277 -13.352 -0.47299999
22.257999 -13.247 -0.47099999
22.243 -13.143 -0.46900001
22.226999 -13.04 -0.46700001
22.223 -12.944 -0.46599999
22.201 -12.838 -0.46399999
22.202 -12.745 -0.463
22.204 -12.7 -0.46200001
22.184999 -12.597 -0.461
22.299 -12.57 -0.463
22.271 -12.461 -0.461
22.259001 -12.363 -0.45899999
22.24 -12.261 -0.458
22.222 -12.161 -0.456
22.197001 -12.102 -0.45500001
22.179001 -12.002 -0.45300001
22.156 -11.9 -0.45100001
22.148001 -11.806 -0.44999999
22.129999 -11.707 -0.44800001
22.112 -11.609 -0.447
22.084 -11.55 -0.44499999
22.069 -11.454 -0.44400001
22.059999 -11.362 -0.442
22.049 -11.269 -0.44100001
22.028999 -11.172 -0.43900001
22.023001 -11.082 -0.43799999
22.000999 -10.984 -0.43700001
21.964001 -10.923 -0.435
21.969999 -10.84 -0.43399999
21.945999 -10.743 -0.43200001
21.857 -10.277 -0.42500001
21.84 -10.227 -0.42399999
21.879999 -10.162 -0.42399999
22.006001 -10.137 -0.42699999
22.103001 -10.097 -0.42899999
22.098 -10.011 -0.428
22.08 -9.9200001 -0.42699999
22.077 -9.835 -0.426
22.039 -9.7770004 -0.42399999
22.028999 -9.6899996 -0.42300001
22.016001 -9.6009998 -0.42199999
22.002001 -9.5129995 -0.41999999
21.997999 -9.4300003 -0.419
21.975 -9.3380003 -0.41800001
21.936001 -9.2810001 -0.41600001
21.921 -9.1940002 -0.41499999
21.907 -9.1070004 -0.414
21.691 -8.9379997 -0.40700001
21.584 -8.8149996 -0.403
21.576 -8.7329998 -0.40200001
21.576 -8.6540003 -0.40099999
21.547001 -8.5640001 -0.40000001
21.533001 -8.5190001 -0.39899999
21.513 -8.4329996 -0.398
21.511 -8.3549995 -0.39700001
21.469999 -8.2609997 -0.39500001
21.459 -8.1789999 -0.39399999
18.577999 -6.9520001 -0.31299999
18.6 -6.927 -0.31299999
18.625 -6.8699999 -0.31299999
18.649 -6.8119998 -0.31299999
18.667999 -6.7519999 -0.31299999
18.695 -6.6960001 -0.31299999
18.714001 -6.6360002 -0.31299999
18.75 -6.5830002 -0.31299999
18.757999 -6.553 -0.31299999
18.801001 -6.5019999 -0.31400001
18.822001 -6.4419999 -0.31400001
18.829 -6.3790002 -0.31400001
18.867001 -6.3260002 -0.31400001
18.893 -6.2690001 -0.31400001
18.955999 -6.256 -0.31600001
18.913 -6.1760001 -0.31400001
21.202999 -6.8470001 -0.37599999
21.207001 -6.7750001 -0.37599999
21.207001 -6.7020001 -0.375
21.201 -6.6269999 -0.375
21.186001 -6.5489998 -0.37400001
21.181 -6.5110002 -0.373
21.172001 -6.4359999 -0.37200001
21.152 -6.3569999 -0.37099999
21.150999 -6.2849998 -0.37099999
21.111 -6.2010002 -0.36899999
20.923 -6.0739999 -0.36300001
20.921 -6.0029998 -0.36300001
20.892 -5.9590001 -0.36199999
20.879999 -5.8839998 -0.361
20.872999 -5.8119998 -0.36000001
20.851 -5.7350001 -0.359
20.847 -5.664 -0.359
20.820999 -5.5869999 -0.35699999
20.799999 -5.5110002 -0.35600001
20.785 -5.4720001 -0.35600001
20.787001 -5.4029999 -0.35499999
20.778 -5.3309999 -0.35499999
20.781 -5.2620001 -0.354
20.773001 -5.191 -0.354
20.757999 -5.118 -0.35299999
20.743 -5.0450001 -0.352
20.712999 -5.0040002 -0.35100001
20.694 -4.9299998 -0.34999999
20.688 -4.8600001 -0.34900001
20.688 -4.7919998 -0.34900001
20.66 -4.717 -0.34799999
20.657 -4.6479998 -0.347
20.646 -4.5780001 -0.347
20.620001 -4.5380001 -0.34599999
20.613001 -4.4679999 -0.345
20.618999 -4.402 -0.345
20.599001 -4.3299999 -0.34400001
20.583 -4.2589998 -0.34299999
20.570999 -4.1900001 -0.34299999
20.552999 -4.119 -0.34200001
20.546 -4.0500002 -0.34099999
20.509001 -4.0100002 -0.34
20.486 -3.938 -0.33899999
20.471001 -3.869 -0.33899999
20.475 -3.803 -0.338
20.455999 -3.733 -0.338
20.465 -3.668 -0.33700001
20.447001 -3.599 -0.33700001
20.433001 -3.563 -0.336
20.415001 -3.494 -0.33500001
20.403999 -3.4260001 -0.33500001
20.386999 -3.358 -0.33399999
20.372 -3.29 -0.333
20.388 -3.2260001 -0.33399999
20.395 -3.1949999 -0.33399999
20.410999 -3.132 -0.33399999
20.424 -3.0680001 -0.33399999
20.426001 -3.003 -0.33399999
20.437 -2.9389999 -0.33399999
20.468 -2.878 -0.33399999
20.493 -2.8150001 -0.33500001
20.525999 -2.7539999 -0.33500001
20.538 -2.723 -0.336
20.544001 -2.658 -0.33500001
20.566 -2.595 -0.336
20.594 -2.533 -0.336
20.6 -2.4679999 -0.336
20.608 -2.404 -0.336
20.625 -2.3399999 -0.33700001
20.649 -2.3099999 -0.33700001
20.664 -2.2460001 -0.33700001
20.674999 -2.181 -0.33700001
20.691 -2.1170001 -0.338
20.712 -2.0539999 -0.338
20.719999 -1.989 -0.338
20.73 -1.924 -0.338
20.750999 -1.893 -0.33899999
20.777 -1.829 -0.33899999
20.763 -1.763 -0.33899999
20.77 -1.697 -0.33899999
20.783001 -1.633 -0.33899999
20.806 -1.569 -0.33899999
20.830999 -1.505 -0.34
20.851 -1.473 -0.34
20.870001 -1.409 -0.34099999
20.896 -1.345 -0.34099999
20.950001 -1.2819999 -0.34299999
21.025999 -1.22 -0.34400001
21.118 -1.159 -0.347
21.198999 -1.13 -0.34900001
21.271 -1.067 -0.35100001
21.334 -1.002 -0.352
21.409 -0.93900001 -0.354
21.500999 -0.875 -0.35600001
21.615999 -0.81099999 -0.359
21.698 -0.74599999 -0.361
21.795 -0.71499997 -0.36399999
21.871 -0.64899999 -0.366
21.959 -0.58200002 -0.368
22.055 -0.51499999 -0.37099999
22.138 -0.447 -0.373
22.233999 -0.37900001 -0.375
22.315001 -0.31099999 -0.377
22.405001 -0.27700001 -0.38
22.49 -0.207 -0.382
22.584 -0.13699999 -0.384
22.653 -0.066 -0.38600001
22.711 0.023 -0.523
22.916 0.167 -0.52899998
22.99 0.23999999 -0.53100002
23.097 0.27700001 -0.53500003
23.212 0.35100001 -0.53899997
23.283001 0.42500001 -0.54100001
23.504999 0.50300002 -0.54799998
23.569 0.57800001 -0.55000001
23.627001 0.65399998 -0.55199999
23.687 0.73000002 -0.55400002
23.756001 0.76899999 -0.55599999
23.813 0.84600002 -0.55800003
23.877001 0.92299998 -0.56
23.927 1.001 -0.56199998
24.0 1.079 -0.565
24.049999 1.1569999 -0.56599998
24.115 1.2359999 -0.56800002
24.172001 1.277 -0.56999999
24.242001 1.357 -0.57300001
24.318001 1.438 -0.57499999
24.330999 1.515 -0.57599998
24.392 1.596 -0.57800001
24.496 1.6799999 -0.58200002
24.556999 1.761 -0.58399999
24.620001 1.8049999 -0.58600003
24.681999 1.887 -0.588
24.747999 1.97 -0.58999997
24.601999 2.0369999 -0.58600003
24.521999 2.108 -0.583
24.441 2.178 -0.58099997
24.375999 2.25 -0.579
24.421 2.2920001 -0.58099997
24.489 2.3759999 -0.583
24.565001 2.4619999 -0.58600003
24.622999 2.546 -0.588
24.691999 2.631 -0.58999997
24.739 2.7149999 -0.59200001
24.816 2.802 -0.59500003
24.885 2.849 -0.597
24.958 2.937 -0.60000002
25.030001 3.0250001 -0.60299999
25.103001 3.1140001 -0.60500002
25.169001 3.2019999 -0.60799998
25.233999 3.2909999 -0.61000001
25.299 3.3800001 -0.61299998
25.384001 3.4319999 -0.616
25.461 3.5239999 -0.61799997
25.517 3.6129999 -0.62
25.601999 3.707 -0.62400001
25.66 3.7980001 -0.62599999
25.740999 3.8929999 -0.62900001
25.815001 3.987 -0.63200003
21.983 3.434 -0.50800002
21.900999 3.4920001 -0.505
21.844 3.553 -0.50400001
21.819 3.6199999 -0.50400001
21.808001 3.688 -0.50400001
21.798 3.757 -0.50400001
21.813 3.8299999 -0.50400001
21.837 3.8699999 -0.505
21.889999 3.95 -0.50800002
21.987 4.039 -0.51099998
27.395 5.1149998 -0.68800002
27.483 5.2199998 -0.69099998
27.468 5.3070002 -0.69099998
27.34 5.3720002 -0.68699998
27.507 5.494 -0.69300002
27.547001 5.5469999 -0.69499999
27.587999 5.6459999 -0.69700003
27.631001 5.7449999 -0.699
27.674 5.8439999 -0.70099998
27.718 5.9450002 -0.70300001
27.775 6.0479999 -0.70499998
27.818001 6.1030002 -0.70700002
27.916 6.217 -0.71100003
28.212 6.375 -0.72100002
28.268 6.4809999 -0.72399998
22.957001 -16.357 0.98299998
19.025 -22.743 -0.745
18.979 -22.544001 -0.73900002
19.033001 -22.465 -0.73799998
19.004 -22.288 -0.73299998
18.966999 -22.174 -0.73000002
18.917 -21.975 -0.72399998
18.927 -21.847 -0.72100002
18.909 -21.688 -0.71700001
18.919001 -21.563 -0.71399999
18.83 -21.325001 -0.70599997
18.816999 -21.176001 -0.70200002
18.792 -21.08 -0.69999999
18.780001 -20.934999 -0.69599998
18.750999 -20.77 -0.69099998
18.771999 -20.662001 -0.68900001
18.759001 -20.518 -0.685
18.738001 -20.365999 -0.68099999
18.691999 -20.188 -0.676
18.653999 -20.084 -0.67299998
18.68 -19.986 -0.671
18.656 -19.834 -0.667
18.604 -19.653999 -0.662
18.577 -19.503 -0.65799999
18.622 -19.427 -0.65700001
18.663 -19.348 -0.65600002
18.584 -19.205999 -0.65100002
18.587 -19.087999 -0.648
18.517 -18.896999 -0.64200002
18.506001 -18.767 -0.639
18.563999 -18.708 -0.639
18.552 -18.579 -0.63599998
18.500999 -18.410999 -0.63099998
18.597 -18.448999 -0.634
18.639 -18.375 -0.63300002
18.632 -18.253 -0.63
18.704 -18.208 -0.63099998
18.882 -18.266001 -0.63599998
18.92 -18.188999 -0.63599998
19.627001 -18.750999 -0.66399997
19.726999 -18.788 -0.66799998
19.743999 -18.686001 -0.66600001
19.855 -18.673 -0.66799998
19.978001 -18.671 -0.671
20.287001 -18.841 -0.68199998
19.474001 -17.358 -0.63099998
19.444 -17.221001 -0.62699997
19.561001 -17.215 -0.63
19.388 -17.009001 -0.62099999
19.488001 -16.989 -0.62300003
19.579 -16.959999 -0.625
19.613001 -16.882 -0.62400001
19.784 -16.921 -0.62900001
19.943001 -16.950001 -0.63300002
20.030001 -16.915001 -0.63499999
20.045 -16.874001 -0.634
20.084999 -16.799999 -0.634
20.169001 -16.763 -0.63499999
20.235001 -16.711 -0.63599998
20.329 -16.681 -0.63700002
20.441999 -16.667 -0.63999999
20.773001 -16.829 -0.65100002
20.792 -16.681999 -0.64899999
20.830999 -16.607 -0.648
20.91 -16.563 -0.64899999
21.018999 -16.541 -0.65200001
21.127001 -16.52 -0.65399998
21.264 -16.518999 -0.65700001
19.209999 -14.872 -0.57300001
21.427 -16.485001 -0.66100001
21.561001 -16.481001 -0.66399997
21.922001 -16.648001 -0.67699999
17.729 -13.37 -0.50599998
21.816 -16.351999 -0.66799998
18.48 -13.801 -0.53399998
22.042 -16.360001 -0.67400002
22.139 -16.323999 -0.676
19.201 -13.467 -0.546
22.621 -15.765 -0.67799997
22.614 -15.655 -0.676
22.599001 -15.54 -0.67299998
22.584 -15.425 -0.671
19.882999 -13.531 -0.565
21.579 -14.588 -0.62900001
22.507 -15.114 -0.66299999
22.521 -15.021 -0.662
22.523001 -14.92 -0.66000003
22.513 -14.812 -0.65799999
22.489 -14.695 -0.65499997
22.337999 -14.546 -0.64899999
22.421 -14.5 -0.64999998
22.429001 -14.406 -0.64899999
22.414 -14.297 -0.64700001
22.398001 -14.187 -0.64399999
22.382999 -14.08 -0.64200002
22.361 -13.968 -0.639
22.332001 -13.901 -0.63800001
22.297001 -13.782 -0.63499999
22.271999 -13.67 -0.63200003
22.273001 -13.574 -0.63
22.271999 -13.478 -0.62900001
22.253 -13.371 -0.62699997
22.242001 -13.269 -0.625
22.205999 -13.201 -0.62199998
22.187 -13.095 -0.62
22.176001 -12.995 -0.61799997
22.153 -12.888 -0.616
22.157 -12.797 -0.61500001
22.194 -12.726 -0.61400002
22.042 -12.593 -0.60799998
22.177 -12.578 -0.61199999
22.236 -12.519 -0.61199999
22.216999 -12.417 -0.61000001
22.202 -12.317 -0.60799998
22.191999 -12.22 -0.60600001
22.174 -12.119 -0.60399997
22.142 -12.057 -0.60299999
22.127001 -11.958 -0.60100001
22.113001 -11.861 -0.59899998
22.096001 -11.763 -0.597
22.08 -11.665 -0.59500003
22.066999 -11.57 -0.59299999
22.055 -11.475 -0.59100002
22.038 -11.378 -0.58899999
22.000999 -11.315 -0.58700001
21.997 -11.226 -0.58600003
21.975 -11.128 -0.58399999
21.962 -11.035 -0.58200002
21.937 -10.936 -0.57999998
21.937 -10.85 -0.579
21.912001 -10.752 -0.57700002
21.886 -10.697 -0.57499999
21.823999 -10.328 -0.56800002
21.82 -10.243 -0.56699997
21.789 -10.186 -0.565
21.891001 -10.151 -0.56800002
22.028 -10.13 -0.57200003
22.066 -10.064 -0.57200003
22.052 -9.974 -0.56999999
22.028 -9.8800001 -0.56800002
22.013 -9.79 -0.56699997
21.993 -9.698 -0.565
21.975 -9.6490002 -0.56400001
21.959999 -9.5600004 -0.56199998
21.955 -9.4759998 -0.56099999
21.931 -9.3839998 -0.55900002
21.922001 -9.2989998 -0.55800003
21.905001 -9.21 -0.55599999
21.879999 -9.1190004 -0.55400002
21.865 -9.0719995 -0.55299997
21.548 -8.8610001 -0.54100001
21.527 -8.7740002 -0.54000002
21.509001 -8.6870003 -0.53799999
21.497 -8.6040001 -0.537
21.479 -8.5190001 -0.53500003
21.466999 -8.4359999 -0.53399998
21.445 -8.3879995 -0.53299999
21.431999 -8.3059998 -0.53100002
21.422001 -8.2250004 -0.52999997
18.506001 -6.9679999 -0.42899999
18.525999 -6.9089999 -0.428
18.552 -6.8860002 -0.42899999
18.575001 -6.8280001 -0.42899999
18.606001 -6.7729998 -0.42899999
18.636999 -6.7179999 -0.43000001
18.66 -6.6599998 -0.43000001
18.688 -6.6040001 -0.43000001
18.726 -6.5510001 -0.43099999
18.736 -6.5219998 -0.43099999
18.745001 -6.4590001 -0.43000001
18.778 -6.4050002 -0.43099999
18.802 -6.3470001 -0.43099999
18.830999 -6.2909999 -0.43099999
18.855 -6.2329998 -0.43099999
18.868999 -6.1719999 -0.43099999
21.157 -6.8870001 -0.50800002
21.148001 -6.8099999 -0.50700003
21.132999 -6.7319999 -0.50599998
21.118 -6.6550002 -0.50400001
21.108 -6.579 -0.50300002
21.1 -6.5029998 -0.50199997
21.08 -6.4250002 -0.50099999
21.063 -6.3839998 -0.5
21.049 -6.3070002 -0.49900001
21.003 -6.2210002 -0.49700001
20.864 -6.1090002 -0.491
20.854 -6.0349998 -0.49000001
20.83 -5.9569998 -0.48899999
20.816 -5.882 -0.48800001
20.797001 -5.8410001 -0.48699999
20.794001 -5.77 -0.486
20.642 -5.658 -0.48100001
20.740999 -5.4060001 -0.48199999
20.712 -5.3639998 -0.47999999
20.700001 -5.2909999 -0.479
20.690001 -5.2189999 -0.479
20.655001 -5.1409998 -0.477
20.662001 -5.0739999 -0.477
20.639 -5.0 -0.47499999
20.621 -4.927 -0.47400001
20.615 -4.8569999 -0.47400001
20.603001 -4.8200002 -0.47299999
20.587 -4.7480001 -0.472
20.584999 -4.6789999 -0.47099999
20.57 -4.6079998 -0.47
20.544001 -4.467 -0.46900001
20.534 -4.3969998 -0.46799999
20.516001 -4.3600001 -0.46700001
20.497999 -4.2880001 -0.46599999
20.49 -4.2199998 -0.465
20.48 -4.1500001 -0.46399999
20.471001 -4.0819998 -0.46399999
20.458 -4.0120001 -0.463
20.447001 -3.977 -0.46200001
20.427999 -3.9059999 -0.461
20.41 -3.8369999 -0.46000001
20.403 -3.7690001 -0.46000001
20.393 -3.701 -0.45899999
20.385 -3.6329999 -0.458
20.378 -3.566 -0.458
20.356001 -3.4960001 -0.45699999
20.346001 -3.4619999 -0.456
20.323 -3.392 -0.45500001
20.316 -3.325 -0.45500001
20.306 -3.2579999 -0.454
20.327999 -3.1960001 -0.454
20.336 -3.132 -0.454
20.351999 -3.069 -0.454
20.368999 -3.039 -0.45500001
20.382 -2.9749999 -0.45500001
20.403 -2.9130001 -0.45500001
20.422001 -2.8499999 -0.456
20.437 -2.7869999 -0.456
20.452999 -2.724 -0.456
20.468 -2.6600001 -0.456
20.49 -2.631 -0.45699999
20.506001 -2.5669999 -0.45699999
20.52 -2.503 -0.45699999
20.532 -2.4389999 -0.45699999
20.551001 -2.3759999 -0.458
20.552 -2.3110001 -0.458
20.478001 -2.237 -0.45500001
20.240999 -2.1789999 -0.447
20.228001 -2.1129999 -0.447
20.620001 -2.089 -0.45899999
20.631001 -2.0250001 -0.45899999
20.650999 -1.962 -0.46000001
20.679001 -1.899 -0.46000001
20.684 -1.8660001 -0.46000001
20.695999 -1.802 -0.461
20.715 -1.738 -0.461
20.724001 -1.673 -0.461
20.738001 -1.609 -0.461
20.764999 -1.545 -0.46200001
20.777 -1.4809999 -0.46200001
20.789 -1.449 -0.463
20.806 -1.3839999 -0.463
20.834 -1.3200001 -0.46399999
20.902 -1.2589999 -0.46599999
20.986 -1.198 -0.46799999
21.066999 -1.136 -0.47099999
21.148001 -1.074 -0.47299999
21.228001 -1.045 -0.47600001
21.297001 -0.98100001 -0.47799999
21.384001 -0.91799998 -0.48100001
21.475 -0.85399997 -0.484
21.565001 -0.79000002 -0.486
21.643 -0.72500002 -0.48899999
21.723 -0.66000003 -0.491
21.812 -0.62800002 -0.49399999
21.893999 -0.56199998 -0.49700001
21.99 -0.495 -0.5
22.073 -0.428 -0.50199997
22.16 -0.36000001 -0.505
22.253 -0.292 -0.50800002
22.334 -0.223 -0.51099998
22.440001 -0.189 -0.514
22.528999 -0.119 -0.51700002
22.621 -0.048 -0.51999998
22.976 0.19499999 -0.68199998
23.061001 0.26800001 -0.685
23.167999 0.34200001 -0.68900001
23.343 0.382 -0.69599998
23.506001 0.45899999 -0.70200002
23.318001 0.528 -0.69499999
23.458 0.60500002 -0.70099998
23.672001 0.685 -0.70899999
23.738001 0.76200002 -0.71200001
23.785 0.838 -0.713
24.121 0.88800001 -0.727
23.528999 0.94 -0.704
23.448 1.01 -0.70099998
24.073999 1.1900001 -0.72500002
24.156 1.27 -0.72899997
24.190001 1.348 -0.73000002
23.896999 1.369 -0.71899998
24.040001 1.4529999 -0.72399998
24.382 1.551 -0.73799998
24.469 1.6339999 -0.741
24.528999 1.715 -0.74400002
24.598 1.798 -0.74699998
24.662001 1.881 -0.74900001
24.718 1.924 -0.75199997
24.73 2.003 -0.75199997
24.59 2.069 -0.74699998
24.506001 2.1400001 -0.74400002
24.438 2.211 -0.74199998
24.403 2.2850001 -0.741
24.471001 2.369 -0.74400002
24.531 2.414 -0.74599999
24.584999 2.4979999 -0.74900001
24.646 2.582 -0.75099999
24.728001 2.6689999 -0.755
24.792999 2.7550001 -0.75800002
24.858999 2.842 -0.76099998
24.93 2.9289999 -0.764
25.007999 2.9779999 -0.76700002
25.072001 3.066 -0.76999998
25.146 3.155 -0.773
25.212999 3.244 -0.77600002
25.284 3.3340001 -0.77899998
25.354 3.425 -0.78200001
25.431 3.517 -0.78600001
25.497999 3.5669999 -0.78899997
25.572001 3.6589999 -0.792
25.659 3.7539999 -0.796
25.732 3.8469999 -0.79900002
25.792999 3.9389999 -0.80199999
25.881001 4.0359998 -0.80599999
21.922001 3.4849999 -0.65200001
21.841999 3.543 -0.64899999
21.82 3.575 -0.648
21.823 3.645 -0.64899999
21.802999 3.7130001 -0.64899999
21.805 3.7839999 -0.64899999
21.816999 3.8559999 -0.64999998
21.832001 3.9300001 -0.65100002
21.895 3.977 -0.65399998
21.99 4.0650001 -0.65799999
27.301001 5.1420002 -0.86699998
27.367001 5.244 -0.87
27.329 5.3260002 -0.86900002
27.336 5.4159999 -0.87
27.426001 5.5240002 -0.875
27.469999 5.5780001 -0.87699997
27.511 5.6760001 -0.87900001
27.568001 5.7779999 -0.88200003
27.601999 5.8759999 -0.884
27.646 5.9759998 -0.88599998
27.697001 6.079 -0.889
27.743 6.1799998 -0.89200002
27.77 6.2319999 -0.89300001
15.19 -16.693001 -1.61
15.251 -16.653999 -1.6109999
15.306 -16.663 -1.614
15.322 -16.575001 -1.61
15.367 -16.518999 -1.609
15.389 -16.438999 -1.6059999
15.441 -16.389999 -1.6059999
15.466 -16.313999 -1.603
15.515 -16.263 -1.602
15.521 -16.218 -1.6
15.559 -16.156 -1.599
15.595 -16.091999 -1.597
15.661 -16.058001 -1.599
15.704 -16.002001 -1.598
15.749 -15.947 -1.597
15.787 -15.886 -1.596
15.791 -15.84 -1.5930001
15.852 -15.802 -1.595
15.893 -15.743 -1.594
15.934 -15.685 -1.5930001
15.978 -15.629 -1.592
16.024 -15.576 -1.592
16.073999 -15.527 -1.592
16.091 -15.495 -1.591
16.138 -15.443 -1.591
16.197001 -15.402 -1.592
16.253 -15.358 -1.5930001
16.291 -15.297 -1.592
16.330999 -15.239 -1.591
16.372 -15.181 -1.59
16.375 -15.136 -1.5880001
16.406 -15.07 -1.586
16.431999 -14.998 -1.584
16.466999 -14.935 -1.5829999
16.5 -14.872 -1.581
16.563 -14.834 -1.5829999
16.593 -14.814 -1.584
16.625999 -14.749 -1.582
16.691 -14.714 -1.584
16.733 -14.658 -1.584
16.759001 -14.588 -1.582
16.809999 -14.539 -1.582
16.851 -14.483 -1.582
16.892 -14.426 -1.581
16.926001 -14.409 -1.582
16.965 -14.351 -1.582
17.0 -14.289 -1.581
17.023001 -14.217 -1.5779999
17.063 -14.16 -1.5779999
17.094 -14.095 -1.576
17.139 -14.042 -1.577
17.158001 -14.013 -1.576
17.17 -13.932 -1.573
17.229 -13.891 -1.575
17.263 -13.829 -1.574
17.271999 -13.748 -1.5700001
17.33 -13.704 -1.572
17.334999 -13.62 -1.568
17.312 -13.471 -1.559
17.379999 -13.436 -1.561
17.378 -13.347 -1.557
17.405001 -13.282 -1.556
17.301001 -13.116 -1.541
17.424999 -13.124 -1.549
17.488001 -13.129 -1.553
17.649 -12.074 -1.515
17.646 -11.99 -1.511
17.642 -11.907 -1.507
17.638 -11.823 -1.503
17.618999 -11.73 -1.497
17.601 -11.678 -1.494
17.587 -11.59 -1.489
17.594 -11.515 -1.4859999
17.573 -11.422 -1.4809999
17.577 -11.347 -1.477
17.570999 -11.264 -1.473
17.542 -11.168 -1.467
17.577 -11.113 -1.467
17.645 -11.118 -1.472
17.733999 -11.096 -1.477
17.816 -11.07 -1.482
17.914 -11.052 -1.488
18.004 -11.031 -1.493
18.098 -11.01 -1.499
18.194 -10.991 -1.5039999
18.264999 -10.994 -1.5089999
18.371 -10.98 -1.516
18.451 -10.949 -1.52
18.563 -10.937 -1.528
26.569 3.767 0.81900001
26.638 3.862 0.82099998
18.797001 -10.877 -1.541
26.798 4.0149999 0.82499999
18.961 -10.814 -1.55
26.93 4.2080002 0.829
18.996 -10.676 -1.5470001
19.017 -10.609 -1.546
19.037001 -10.542 -1.545
19.077 -10.486 -1.545
19.093 -10.456 -1.545
17.438 -9.4759998 -1.391
17.441999 -9.4069996 -1.3890001
17.524 -9.3800001 -1.3940001
17.552 -9.3240004 -1.393
17.634001 -9.2969999 -1.398
17.667999 -9.2449999 -1.399
17.693001 -9.2220001 -1.4
27.650999 5.3959999 0.85000002
27.580999 5.4720001 0.84899998
17.709999 -9.0200005 -1.393
27.653999 5.6680002 0.85100001
27.687 5.7649999 0.852
17.775 -8.8430004 -1.392
27.782 5.9219999 0.85500002
17.9 -8.8000002 -1.399
18.157 -8.8559999 -1.42
17.959999 -8.6899996 -1.4
28.896999 6.7800002 0.884
28.941999 6.8870001 0.88599998
28.976999 6.9920001 0.88700002
29.044001 7.105 0.889
29.101 7.2160001 0.89099997
29.118999 7.3169999 0.89200002
28.732 7.3639998 0.884
28.618999 7.4310002 0.88200003
28.652 7.5349998 0.88300002
28.566 7.6090002 0.88200003
28.580999 7.7090001 0.88200003
28.653 7.8249998 0.88499999
28.702 7.8870001 0.88599998
28.750999 7.9980001 0.88800001
28.795 8.1079998 0.88999999
28.854 8.2220001 0.89200002
28.995001 8.3610001 0.89600003
19.038 -22.393 -0.92900002
19.042999 -22.257 -0.92500001
19.076 -22.155001 -0.92299998
18.986 -21.98 -0.91600001
18.959 -21.809999 -0.91000003
18.955999 -21.669001 -0.90600002
18.937 -21.511 -0.90100002
18.914 -21.349001 -0.89600003
18.888 -21.184999 -0.88999999
18.870001 -21.032 -0.88499999
18.841999 -20.934 -0.88200003
18.820999 -20.780001 -0.87699997
18.826 -20.655001 -0.87300003
18.754999 -20.448 -0.866
18.757999 -20.323 -0.86199999
18.788 -20.228001 -0.86000001
18.766001 -20.077 -0.85500002
18.711 -19.955 -0.85100001
18.672001 -19.789 -0.84500003
18.673 -19.667 -0.84100002
18.653 -19.523001 -0.83700001
18.594 -19.339001 -0.82999998
18.649 -19.274 -0.82999998
18.683001 -19.188999 -0.82800001
18.568001 -19.011 -0.81999999
18.528 -18.851 -0.815
18.52 -18.725 -0.81099999
18.552999 -18.641001 -0.81
18.563 -18.535 -0.80699998
18.594 -18.450001 -0.80599999
18.624001 -18.363001 -0.80400002
18.570999 -18.254 -0.80000001
18.583 -18.150999 -0.79699999
18.719 -18.169001 -0.80199999
18.976999 -18.304001 -0.81199998
18.594 -17.823 -0.78899997
18.479 -17.601999 -0.77999997
18.490999 -17.503 -0.778
18.427 -17.386999 -0.773
18.417999 -17.271 -0.76899999
18.370001 -17.117001 -0.764
18.364 -17.004 -0.76099998
18.402 -16.933001 -0.75999999
18.408001 -16.832001 -0.75800002
18.434 -16.75 -0.75599998
18.371 -16.639999 -0.75199997
18.346001 -16.513 -0.74800003
18.429001 -16.483 -0.74900001
18.363001 -16.32 -0.74299997
18.671 -16.489 -0.75599998
18.351999 -16.106001 -0.73699999
18.346001 -15.998 -0.73400003
18.523001 -16.101999 -0.74199998
18.305 -15.712 -0.72600001
19.809999 -16.893 -0.80000001
18.098 -15.339 -0.71100003
19.976999 -16.819 -0.80299997
20.077999 -16.798 -0.80500001
20.148001 -16.802 -0.80699998
20.247999 -16.778 -0.81
20.325001 -16.735001 -0.81099999
20.452 -16.731001 -0.815
18.045 -14.671 -0.69300002
18.176001 -14.684 -0.69700003
18.021999 -14.512 -0.68800002
18.152 -14.523 -0.69199997
18.423 -14.645 -0.70300001
18.351 -14.494 -0.69700003
18.021999 -14.143 -0.67900002
18.000999 -14.036 -0.676
21.347 -16.531 -0.83700001
19.273001 -14.832 -0.73400003
21.511999 -16.497 -0.84100002
21.660999 -16.503 -0.84600002
21.747999 -16.462 -0.847
21.881001 -16.454 -0.85100001
18.504999 -13.83 -0.68699998
22.143999 -16.436001 -0.85900003
17.823999 -13.149 -0.64999998
19.584999 -14.397 -0.73299998
22.635 -15.722 -0.85799998
22.607 -15.597 -0.85500002
22.594999 -15.484 -0.852
17.941999 -12.22 -0.63300002
22.556999 -15.252 -0.84600002
22.250999 -14.994 -0.82999998
22.488001 -15.051 -0.83899999
22.476999 -14.941 -0.83600003
22.462 -14.83 -0.83399999
22.438 -14.713 -0.82999998
22.412001 -14.596 -0.82700002
22.087999 -14.287 -0.81
22.344 -14.403 -0.82099998
22.334 -14.297 -0.81800002
18.782 -11.945 -0.65399998
18.792999 -11.869 -0.653
22.298 -13.98 -0.81099999
22.288 -13.876 -0.80800003
22.236 -13.796 -0.80500001
19.733 -12.16 -0.69
18.57 -11.365 -0.63499999
22.177 -13.472 -0.796
22.174999 -13.375 -0.79400003
22.16 -13.271 -0.792
22.131001 -13.16 -0.78899997
22.104 -13.097 -0.78600001
22.073 -12.985 -0.78299999
22.068001 -12.889 -0.78100002
22.062 -12.793 -0.77899998
22.063999 -12.701 -0.77700001
22.107 -12.634 -0.778
22.098 -12.537 -0.77499998
22.174 -12.488 -0.77700001
22.152 -12.43 -0.77499998
22.122999 -12.322 -0.77200001
22.110001 -12.225 -0.76999998
22.089001 -12.123 -0.76700002
22.094 -12.035 -0.76599997
22.058001 -11.926 -0.76300001
22.056 -11.836 -0.76099998
22.027 -11.776 -0.759
22.002001 -11.674 -0.75599998
21.997999 -11.583 -0.75400001
21.983 -11.487 -0.75199997
21.966 -11.39 -0.75
21.952 -11.296 -0.74800003
21.917999 -11.235 -0.745
21.914 -11.146 -0.74400002
21.888 -11.047 -0.741
21.879999 -10.956 -0.73900002
21.823999 -10.843 -0.73500001
21.795 -10.744 -0.73299998
21.790001 -10.656 -0.73100001
21.782 -10.567 -0.72899997
21.754999 -10.261 -0.72299999
21.759001 -10.179 -0.722
21.856001 -10.141 -0.72500002
21.98 -10.115 -0.72899997
22.077999 -10.117 -0.73199999
22.086 -10.037 -0.73100001
22.063999 -9.9440002 -0.72899997
22.061001 -9.8590002 -0.72799999
22.046 -9.7700005 -0.72600001
22.038 -9.684 -0.72399998
22.013 -9.5900002 -0.722
21.979 -9.5340004 -0.72000003
21.968 -9.448 -0.71799999
21.957001 -9.3620005 -0.71600002
21.931999 -9.2690001 -0.71399999
18.377001 -7.704 -0.56400001
18.106001 -7.5240002 -0.55199999
21.610001 -8.9350004 -0.69700003
21.533001 -8.8240004 -0.69300002
21.514 -8.7370005 -0.69099998
21.513 -8.658 -0.69
21.489 -8.5699997 -0.68800002
21.476 -8.4870005 -0.68599999
21.458 -8.4020004 -0.68400002
21.441999 -8.3570004 -0.68300003
21.434 -8.2770004 -0.68199998
21.427999 -8.1969995 -0.68000001
18.541 -6.9629998 -0.55900002
18.559999 -6.9039998 -0.55900002
18.597 -6.8509998 -0.56
18.606001 -6.8210001 -0.56
18.639 -6.7670002 -0.56
18.677 -6.7140002 -0.56099999
18.701 -6.6570001 -0.56099999
18.715 -6.5960002 -0.56099999
18.749001 -6.5409999 -0.56099999
18.767 -6.4819999 -0.56099999
18.794001 -6.4580002 -0.56199998
18.826 -6.4029999 -0.56300002
18.85 -6.3449998 -0.56300002
18.865999 -6.2849998 -0.56300002
18.896999 -6.2290001 -0.56300002
18.888 -6.1599998 -0.56199998
21.183001 -6.8319998 -0.65399998
21.17 -6.7909999 -0.653
21.146 -6.71 -0.65100002
21.131001 -6.6329999 -0.64999998
21.134001 -6.5609999 -0.64899999
21.113001 -6.4819999 -0.64700001
21.106001 -6.4070001 -0.64600003
21.105 -6.335 -0.64499998
21.066999 -6.2870002 -0.64399999
20.974001 -6.1880002 -0.639
20.889 -6.092 -0.63499999
20.872 -6.0159998 -0.63300002
20.856001 -5.9400001 -0.63200003
20.855 -5.869 -0.63099998
20.787001 -5.7800002 -0.62800002
20.844 -5.7249999 -0.62900001
20.663 -4.9829998 -0.61500001
20.65 -4.9120002 -0.61400002
20.652 -4.8429999 -0.61400002
20.625999 -4.803 -0.61199999
20.615999 -4.7329998 -0.611
20.605 -4.6620002 -0.61000001
20.624001 -4.598 -0.611
19.934999 -4.3800001 -0.583
20.572001 -4.4510002 -0.60699999
20.547001 -4.3790002 -0.60600001
20.535 -4.309 -0.60500002
20.532 -4.2740002 -0.60399997
20.500999 -4.1339998 -0.602
20.503 -4.0669999 -0.602
20.482 -3.9960001 -0.60000002
20.473 -3.928 -0.60000002
20.459999 -3.859 -0.59899998
20.459999 -3.825 -0.59799999
20.426001 -3.753 -0.597
20.416 -3.6849999 -0.59600002
20.41 -3.618 -0.59500003
20.403999 -3.55 -0.59399998
20.377001 -3.48 -0.59299999
20.004 -3.352 -0.57800001
19.903999 -3.303 -0.574
20.059 -3.2639999 -0.579
20.249001 -3.2290001 -0.58600003
20.322001 -3.1760001 -0.58899999
20.358999 -3.1159999 -0.58999997
20.363001 -3.0510001 -0.58999997
20.339001 -2.9820001 -0.588
20.146 -2.9219999 -0.58099997
20.035999 -2.842 -0.57599998
20.018999 -2.7750001 -0.57499999
20.0 -2.7090001 -0.574
19.785 -2.6170001 -0.565
19.666 -2.5380001 -0.56
19.686001 -2.5090001 -0.56099999
19.629999 -2.4400001 -0.55900002
19.638 -2.378 -0.55900002
19.766001 -2.3299999 -0.56300002
19.823 -2.2739999 -0.565
19.884001 -2.217 -0.56699997
19.964001 -2.1630001 -0.56999999
20.065001 -2.142 -0.574
20.108999 -2.0829999 -0.57499999
20.597 -2.0669999 -0.59399998
20.671 -2.0090001 -0.597
20.674999 -1.944 -0.597
20.693001 -1.88 -0.597
20.711 -1.816 -0.597
20.719999 -1.784 -0.59799999
20.729 -1.719 -0.59799999
20.743999 -1.655 -0.59799999
20.767 -1.591 -0.59899998
20.782 -1.526 -0.59899998
20.795 -1.462 -0.60000002
20.819 -1.398 -0.60000002
20.830999 -1.3660001 -0.60100001
20.882 -1.303 -0.60299999
20.934999 -1.24 -0.60399997
21.021 -1.179 -0.60799998
21.101999 -1.117 -0.611
21.191999 -1.0549999 -0.61400002
21.264999 -0.991 -0.61699998
21.360001 -0.96200001 -0.62
21.424999 -0.89700001 -0.62300003
21.52 -0.83399999 -0.62599999
21.608 -0.76899999 -0.63
21.684 -0.70300001 -0.63200003
21.768 -0.63700002 -0.63599998
21.868 -0.57200003 -0.639
21.943001 -0.53899997 -0.64200002
22.040001 -0.472 -0.64600003
22.124001 -0.40400001 -0.64899999
22.215 -0.336 -0.65200001
22.302999 -0.26699999 -0.65600002
22.392 -0.198 -0.65899998
22.479 -0.12800001 -0.66299999
22.580999 -0.093000002 -0.667
22.697001 -0.022 -0.671
22.841 0.189 -0.81199998
22.92 0.26199999 -0.81599998
23.021 0.33500001 -0.81999999
23.120001 0.40900001 -0.82499999
23.226999 0.447 -0.82999998
23.295 0.52200001 -0.833
23.377001 0.597 -0.83700001
23.391001 0.671 -0.83700001
23.533001 0.74900001 -0.84399998
23.598 0.82499999 -0.847
23.691 0.903 -0.85100001
23.792 0.94400001 -0.85500002
23.827 1.02 -0.85699999
23.797001 1.094 -0.85600001
23.975 1.177 -0.86400002
24.055 1.257 -0.86799997
23.978001 1.3279999 -0.86400002
24.165001 1.415 -0.87300003
24.214001 1.456 -0.875
24.02 1.52 -0.86699998
24.278999 1.613 -0.87900001
24.409 1.698 -0.88499999
24.483 1.781 -0.88800001
24.549 1.863 -0.89099997
24.613001 1.9450001 -0.89499998
24.638 1.9859999 -0.89600003
24.587999 2.0599999 -0.89399999
24.503 2.131 -0.88999999
24.434999 2.2019999 -0.88800001
24.424 2.279 -0.88700002
24.492001 2.362 -0.89099997
24.554001 2.4460001 -0.89399999
24.629999 2.493 -0.89700001
24.698999 2.5780001 -0.90100002
24.759001 2.6630001 -0.90399998
24.83 2.7490001 -0.90799999
24.9 2.836 -0.91100001
24.962999 2.9230001 -0.91399997
25.031 3.0109999 -0.91799998
25.104 3.099 -0.921
25.177 3.148 -0.92500001
25.247999 3.2379999 -0.92900002
25.316999 3.3269999 -0.93199998
25.388 3.418 -0.93599999
25.466 3.51 -0.94
25.530001 3.5999999 -0.94300002
25.611 3.6530001 -0.94700003
25.684999 3.7449999 -0.95099998
25.754 3.8380001 -0.95499998
25.837 3.9330001 -0.95899999
21.962 3.418 -0.78500003
21.875999 3.4749999 -0.78200001
21.833 3.539 -0.77999997
21.808001 3.5699999 -0.77899998
21.816 3.642 -0.77999997
21.802999 3.71 -0.77999997
21.801001 3.78 -0.78100002
21.83 3.8559999 -0.78200001
21.855 3.931 -0.78399998
21.839001 3.9990001 -0.78399998
22.0 4.0640001 -0.79100001
27.325001 5.1300001 -1.033
27.403 5.2340002 -1.0369999
27.313999 5.3060002 -1.034
27.362 5.4039998 -1.0369999
27.441 5.5089998 -1.041
27.492001 5.6090002 -1.044
27.514999 5.704 -1.046
27.584 5.7639999 -1.05
27.625 5.8629999 -1.052
27.657 5.96 -1.0549999
27.707001 6.0619998 -1.058
27.743999 6.1620002 -1.0599999
20.365 -16.726 -0.48300001
19.011 -22.110001 -1.0930001
18.981001 -21.934999 -1.087
18.957001 -21.837 -1.0829999
18.962999 -21.707001 -1.0779999
18.898001 -21.496 -1.069
18.881001 -21.34 -1.064
18.858999 -21.181 -1.058
18.856001 -21.044001 -1.053
18.853001 -20.907 -1.049
18.851999 -20.841 -1.046
18.797001 -20.648001 -1.038
18.761999 -20.48 -1.0319999
19.622999 -21.287001 -1.084
18.764 -20.225 -1.023
18.743 -20.076 -1.018
18.737 -19.944 -1.0140001
18.693001 -19.834 -1.0089999
19.232 -20.152 -1.035
18.635 -19.402 -0.99299997
18.628 -19.273001 -0.98900002
18.568001 -19.091 -0.98100001
18.584 -18.987 -0.97799999
18.52 -18.862 -0.972
18.481001 -18.704 -0.96600002
18.499001 -18.605 -0.963
18.551001 -18.541 -0.963
18.547001 -18.421 -0.95899999
18.594 -18.351 -0.958
18.556999 -18.200001 -0.95200002
18.750999 -18.333 -0.963
18.896 -18.358999 -0.96799999
18.393999 -17.646999 -0.93000001
18.452999 -17.591999 -0.93000001
18.440001 -17.469 -0.926
18.48 -17.398001 -0.92500001
18.106001 -16.990999 -0.90100002
18.187 -16.959999 -0.90200001
18.129999 -16.801001 -0.89600003
18.299 -16.851 -0.903
18.396 -16.834 -0.90499997
18.33 -16.667999 -0.898
18.384001 -16.612 -0.898
18.542 -16.702 -0.90600002
18.33 -16.406 -0.89099997
18.275 -16.254 -0.884
18.289 -16.164 -0.88200003
18.142 -15.932 -0.87
18.207001 -15.888 -0.87099999
18.15 -15.788 -0.866
18.225 -15.753 -0.86799997
18.166 -15.602 -0.861
18.285999 -15.606 -0.866
18.219 -15.45 -0.85900003
18.266001 -15.392 -0.85900003
18.261 -15.289 -0.85600001
18.33 -15.25 -0.85699999
18.247999 -15.133 -0.85100001
18.259001 -15.045 -0.84899998
18.152 -14.861 -0.83999997
18.214001 -14.816 -0.84100002
17.983999 -14.535 -0.82499999
18.052999 -14.497 -0.82599998
17.961 -14.331 -0.81800002
17.806999 -14.162 -0.80800003
17.903999 -14.148 -0.81099999
18.114 -14.221 -0.82099998
18.017 -14.054 -0.81300002
17.914 -13.883 -0.80400002
18.042999 -13.893 -0.80900002
18.013 -13.78 -0.80500001
17.966999 -13.699 -0.801
17.863001 -13.532 -0.79299998
17.969999 -13.524 -0.79699999
17.917999 -13.396 -0.79100001
17.886 -13.285 -0.787
17.785 -12.445 -0.76200002
17.778 -12.357 -0.759
17.705 -12.224 -0.75300002
17.816999 -12.219 -0.75700003
17.871 -12.173 -0.75800002
17.820999 -12.057 -0.75300002
17.827 -12.02 -0.75300002
17.773001 -11.903 -0.74800003
17.907 -11.912 -0.75300002
18.224001 -12.041 -0.76800001
18.257999 -11.981 -0.76800001
18.896999 -12.316 -0.80000001
18.627001 -12.056 -0.78299999
17.702999 -11.417 -0.73299998
17.702 -11.338 -0.73100001
17.792999 -11.318 -0.73400003
18.0 -11.371 -0.74299997
18.073 -11.338 -0.745
18.1 -11.276 -0.745
18.200001 -11.259 -0.74800003
18.252001 -11.212 -0.74900001
18.365 -11.242 -0.75400001
18.452 -11.215 -0.75700003
18.504 -11.168 -0.75800002
18.702999 -11.208 -0.76599997
18.771 -11.169 -0.76800001
18.797001 -11.105 -0.76700002
18.855 -11.059 -0.76899999
18.919001 -11.056 -0.77100003
19.069 -11.064 -0.77700001
19.238001 -11.082 -0.78399998
19.282 -11.027 -0.78399998
19.263 -10.935 -0.78200001
19.393 -10.929 -0.78600001
19.554001 -10.98 -0.79400003
19.601 -10.925 -0.79400003
19.660999 -10.878 -0.796
19.725 -10.833 -0.79699999
19.801001 -10.794 -0.79900002
19.912001 -10.773 -0.80299997
20.009001 -10.745 -0.80699998
20.212 -10.772 -0.815
20.285 -10.77 -0.81800002
20.497999 -10.801 -0.82700002
20.517 -10.729 -0.82599998
20.593 -10.687 -0.82800001
20.714001 -10.667 -0.833
20.833 -10.646 -0.83700001
20.898001 -10.596 -0.83899999
21.045 -10.629 -0.84500003
21.149 -10.599 -0.84899998
21.344 -10.613 -0.85699999
21.375 -10.545 -0.85600001
21.518999 -10.532 -0.86199999
21.726 -10.549 -0.87099999
21.726999 -10.256 -0.86500001
21.754 -10.185 -0.86500001
21.875 -10.158 -0.86900002
21.921 -10.096 -0.87
17.98 -8.2410002 -0.676
17.964001 -8.1660004 -0.67400002
18.049 -8.1370001 -0.67699999
19.660999 -8.717 -0.75300002
19.855 -8.7290001 -0.76099998
20.127001 -8.7740002 -0.773
20.091 -8.7209997 -0.77100003
21.957001 -9.4510002 -0.86000001
20.556999 -8.7700005 -0.79000002
20.611 -8.717 -0.792
20.719 -8.6859999 -0.796
20.641001 -8.5769997 -0.79100001
20.662001 -8.5100002 -0.79000002
20.719999 -8.4949999 -0.792
20.796 -8.4510002 -0.79500002
20.849001 -8.3959999 -0.796
21.007 -8.3830004 -0.80199999
20.962 -8.2889996 -0.79900002
21.0 -8.2270002 -0.80000001
21.334 -8.2819996 -0.81400001
21.319 -8.2370005 -0.81300002
21.309999 -8.1569996 -0.81099999
18.521 -7.0190001 -0.67699999
18.532 -6.9569998 -0.67699999
18.577999 -6.9070001 -0.67799997
18.587999 -6.8449998 -0.67699999
18.617001 -6.789 -0.67799997
18.632999 -6.7620001 -0.67799997
18.67 -6.7090001 -0.67900002
18.702 -6.6539998 -0.67900002
18.725 -6.5960002 -0.67900002
18.745001 -6.5370002 -0.67900002
18.781 -6.4840002 -0.68000001
18.805 -6.4260001 -0.68000001
18.804001 -6.3920002 -0.68000001
18.841 -6.3390002 -0.68099999
18.858999 -6.2789998 -0.68000001
18.962 -6.2480001 -0.68400002
21.062 -6.869 -0.78200001
21.066999 -6.7979999 -0.78100002
21.049999 -6.7189999 -0.77899998
21.042 -6.6440001 -0.778
21.024 -6.6020002 -0.77700001
21.007 -6.5240002 -0.77499998
21.004 -6.4510002 -0.77399999
20.992001 -6.375 -0.77200001
20.813 -6.2490001 -0.76300001
20.798 -6.1729999 -0.76099998
20.778999 -6.0970001 -0.75999999
20.775 -6.0599999 -0.759
20.631001 -5.948 -0.75099999
20.59 -5.1030002 -0.74000001
20.589001 -5.0339999 -0.73900002
20.575001 -4.9629998 -0.73799998
20.573 -4.8940001 -0.73699999
20.556999 -4.822 -0.736
20.542999 -4.75 -0.73400003
20.537001 -4.6810002 -0.73299998
20.521999 -4.6440001 -0.73199999
20.511999 -4.5739999 -0.73100001
19.806 -4.3499999 -0.69800001
20.334999 -4.4000001 -0.722
20.360001 -4.3390002 -0.722
20.375999 -4.2750001 -0.722
20.372 -4.2069998 -0.722
20.422001 -4.118 -0.72299999
20.42 -4.0500002 -0.722
20.419001 -3.983 -0.722
20.419001 -3.9170001 -0.72100002
20.396 -3.846 -0.72000003
20.392 -3.779 -0.71899998
20.379 -3.743 -0.71799999
20.365 -3.675 -0.71700001
20.365999 -3.609 -0.71600002
20.337999 -3.5380001 -0.71499997
19.753 -3.372 -0.68800002
19.632999 -3.2880001 -0.68199998
19.638 -3.257 -0.68199998
19.66 -3.197 -0.68199998
19.677999 -3.1359999 -0.68300003
19.690001 -3.075 -0.68300003
19.709 -3.0150001 -0.68300003
19.76 -2.9590001 -0.685
19.754999 -2.895 -0.68400002
19.738001 -2.8610001 -0.68300003
19.721001 -2.7950001 -0.68199998
19.709999 -2.73 -0.68099999
19.693001 -2.665 -0.68000001
19.698999 -2.6029999 -0.68000001
19.695 -2.539 -0.68000001
19.684999 -2.4749999 -0.67900002
19.632 -2.437 -0.676
19.606001 -2.3710001 -0.67500001
19.636999 -2.312 -0.676
19.68 -2.2550001 -0.67699999
19.83 -2.2090001 -0.68400002
19.955999 -2.1600001 -0.68900001
20.007999 -2.102 -0.69099998
20.052999 -2.075 -0.69300002
20.587999 -2.0650001 -0.71700001
20.634001 -2.0050001 -0.71799999
20.646999 -1.9400001 -0.71899998
20.67 -1.877 -0.72000003
20.681999 -1.813 -0.72000003
20.705999 -1.749 -0.72100002
20.718 -1.7180001 -0.72100002
20.733999 -1.653 -0.722
20.745001 -1.589 -0.722
20.764 -1.525 -0.722
20.782 -1.46 -0.72299999
20.801001 -1.396 -0.72399998
20.825001 -1.332 -0.72500002
20.853001 -1.301 -0.72600001
20.934999 -1.24 -0.72899997
21.004 -1.178 -0.73199999
21.084 -1.1160001 -0.73500001
21.167 -1.054 -0.73900002
21.24 -0.991 -0.74199998
21.309 -0.92699999 -0.745
21.375999 -0.89600003 -0.74800003
21.457001 -0.83200002 -0.75099999
21.528999 -0.76800001 -0.755
21.605 -0.70200002 -0.75800002
21.677 -0.63700002 -0.76099998
21.773001 -0.57099998 -0.76499999
21.858999 -0.505 -0.76899999
21.937 -0.472 -0.77200001
22.021 -0.405 -0.77600002
22.122 -0.33700001 -0.77999997
22.191 -0.26899999 -0.78299999
22.268999 -0.2 -0.787
22.356001 -0.13 -0.79100001
22.454 -0.061000001 -0.79500002
22.538 -0.025 -0.79900002
22.481001 0.023 -0.92500001
22.789 0.20299999 -0.94099998
