# .PCD v0.7 - Point Cloud Data file format
VERSION 0.7
FIELDS x y z
SIZE 4 4 4
TYPE F F F
COUNT 1 1 1
WIDTH 279
HEIGHT 1
VIEWPOINT 0 0 0 1 0 0 0
POINTS 279
DATA ascii
-6.7179999 -4.8070002 -1.068
-6.664 -4.802 -0.26199999
-6.6490002 -4.823 -0.26199999
-6.5999999 -4.8189998 -0.259
-6.7290001 -4.8109999 0.29100001
-6.704 -4.8249998 0.29100001
-6.677 -4.8369999 0.29100001
-6.6750002 -4.868 0.29100001
-6.6739998 -4.8990002 0.29100001
-6.6960001 -4.9120002 0.19400001
-6.6659999 -4.928 0.39700001
-6.723 -4.8509998 0.19400001
-6.7199998 -4.8130002 -1.342
-6.6750002 -4.8119998 -1.335
-6.6589999 -4.8330002 -1.335
-6.6329999 -4.8449998 -1.3329999
-6.618 -4.8660002 -1.3329999
-6.6360002 -4.9120002 -1.34
-6.6090002 -4.9239998 -1.337
-6.671 -4.8049998 -1.062
-6.697 -4.8800001 0.19400001
-6.6539998 -4.8249998 -1.062
-6.5580001 -4.5079999 0.42699999
-6.5500002 -4.533 0.428
-6.546 -4.5450001 0.428
-6.5479999 -4.5770001 0.428
-6.6529999 -4.8559999 -1.064
-6.546 -4.6370001 0.42899999
-6.559 -4.677 0.43000001
-6.6659999 -4.7849998 0.43399999
-6.6490002 -4.8039999 0.43399999
-6.6599998 -4.8280001 0.435
-6.6329999 -4.8400002 0.43399999
-6.6370001 -4.875 0.435
-6.4879999 -4.8610001 0.43099999
-6.4460001 -4.8610001 0.43000001
-6.6300001 -4.8889999 -0.26300001
-6.27 -4.8699999 0.42699999
-6.1929998 -4.842 0.42500001
-6.296 -4.954 0.42899999
-6.6680002 -4.7870002 -1.392
-6.6539998 -4.7849998 0.141
-6.6570001 -4.8189998 0.141
-6.6389999 -4.8369999 0.141
-6.6490002 -4.8769999 0.141
-6.5279999 -4.8150001 0.48300001
-6.5289998 -4.8470001 0.484
-6.697 -4.9959998 -0.92799997
-6.5040002 -4.8439999 0.48300001
-6.6750002 -5.0120001 -0.92699999
-6.7670002 -4.836 -0.92299998
-6.7150002 -4.8309999 -0.917
-6.7030001 -4.8540001 -0.917
-6.6890001 -4.8759999 -0.917
-6.6919999 -4.9099998 -0.92000002
-6.678 -4.9320002 -0.921
-6.7220001 -4.8169999 -1.188
-6.6750002 -4.8140001 -1.181
-6.6479998 -4.8270001 -1.179
-6.6269999 -4.8429999 -1.178
-6.6240001 -4.8569999 -1.179
-6.6259999 -4.8909998 -1.182
-6.6139998 -4.914 -1.183
-6.7160001 -4.8060002 -1.474
-6.6849999 -4.816 -1.471
-6.6620002 -4.8150001 -1.467
-6.6690001 -4.8520002 -1.472
-6.652 -4.8709998 -1.472
-6.6399999 -4.895 -1.473
-6.6479998 -4.9330001 -1.478
-6.678 -4.7859998 -1.26
-6.6599998 -4.789 -1.258
-6.6389999 -4.8060002 -1.257
-6.6129999 -4.8179998 -1.255
-6.6069999 -4.8460002 -1.257
-6.5999999 -4.8730001 -1.258
-6.7329998 -4.8260002 -0.011
-6.71 -4.8410001 -0.011
-6.6989999 -4.8649998 -0.011
-6.6729999 -4.8779998 -0.011
-6.6960001 -4.9109998 -0.012
-6.7480001 -4.8449998 -0.616
-6.6300001 -4.7909999 -0.60299999
-6.6149998 -4.8119998 -0.60299999
-6.6009998 -4.8340001 -0.60299999
-6.8379998 -5.0250001 -0.63300002
-6.5710001 -4.8460002 0.33199999
-6.5289998 -4.7989998 -0.255
-6.697 -4.8390002 -0.40700001
-6.6719999 -4.8369999 -0.40599999
-6.6500001 -4.8530002 -0.405
-6.8309999 -5.0180001 -0.42300001
-6.592 -4.5029998 0.479
-6.5780001 -4.5240002 0.479
-6.566 -4.546 0.479
-6.5560002 -4.5700002 0.479
-6.5570002 -4.6009998 0.47999999
-6.5500002 -4.6269999 0.47999999
-6.5539999 -4.6609998 0.48100001
-6.5640001 -4.684 0.48199999
-6.697 -4.8109999 0.48800001
-6.526 -4.7189999 0.48100001
-6.5310001 -4.7540002 0.48199999
-6.5190001 -4.776 0.48199999
-6.7280002 -4.842 -0.116
-6.7049999 -4.8569999 -0.115
-6.6820002 -4.8720002 -0.115
-6.678 -4.902 -0.115
-6.336 -4.7810001 0.47799999
-6.3210001 -4.8319998 0.47799999
-6.2750001 -4.9070001 0.47799999
-6.277 -4.941 0.479
-6.77 -4.8610001 -0.31299999
-6.7179999 -4.855 -0.31
-6.6960001 -4.8709998 -0.31
-6.671 -4.8850002 -0.30899999
-6.8499999 -5.0500002 -0.324
-6.309 -4.8369999 0.42699999
-6.6609998 -4.8400002 -0.81199998
-6.6040001 -4.5879998 0.33000001
-6.5469999 -4.579 0.329
-6.5570002 -4.6160002 0.33000001
-6.5250001 -4.6100001 0.329
-6.5219998 -4.638 0.329
-6.651 -4.763 -0.847
-6.6199999 -4.7729998 -0.84500003
-6.6290002 -4.8080001 0.33199999
-6.5879998 -4.8130002 -0.84399998
-6.5799999 -4.8379998 -0.84500003
-6.5939999 -4.8649998 -0.84899998
-6.5510001 -4.8629999 0.33199999
-6.5170002 -4.869 0.331
-6.487 -4.8790002 0.331
-6.4619999 -4.8920002 0.331
-6.4289999 -4.8990002 0.331
-6.3850002 -4.8969998 0.33000001
-6.3569999 -4.908 0.33000001
-6.3249998 -4.8990002 0.329
-6.3080001 -4.9180002 0.329
-6.3280001 -4.9650002 0.33000001
-6.6929998 -4.8200002 -0.46000001
-6.677 -4.8390002 -0.46000001
-6.6370001 -4.8429999 -0.458
-6.6690001 -4.8979998 -0.463
-6.6589999 -4.9070001 -0.46200001
-6.625 -4.868 -1.062
-6.638 -4.8460002 0.333
-6.5999999 -4.79 -0.84399998
-6.3379998 -4.9200001 0.391
-6.7020001 -4.8119998 -0.211
-6.6810002 -4.8280001 -0.211
-6.651 -4.822 -0.20900001
-6.6160002 -4.829 -0.208
-6.7740002 -4.9780002 -0.219
-6.691 -4.783 -0.96600002
-6.6599998 -4.7930002 -0.963
-6.6550002 -4.8200002 -0.96499997
-6.6329999 -4.8200002 -0.96200001
-6.6300001 -4.8509998 -0.96499997
-6.645 -4.8940001 -0.97000003
-6.5440001 -4.605 0.428
-6.6110001 -4.9130001 -1.2640001
-6.6729999 -4.8140001 0.033
-6.671 -4.8439999 0.032000002
-6.6290002 -4.8470001 0.033
-6.645 -4.8899999 0.032000002
-6.4590001 -4.9169998 0.39300001
-6.6999998 -4.803 -0.55699998
-6.6830001 -4.823 -0.55699998
-6.678 -4.8509998 -0.55800003
-6.6420002 -4.8569999 -0.55500001
-6.6760001 -4.8189998 -0.81199998
-6.6009998 -4.8920002 -0.55400002
-6.6570001 -4.869 -0.81300002
-6.6539998 -4.9000001 -0.815
-6.6620002 -4.9380002 -0.81900001
-6.3730001 -4.915 0.39199999
-6.6100001 -4.757 0.23199999
-6.5910001 -4.7750001 0.23199999
-6.6680002 -4.8179998 -1.396
-6.6030002 -4.8309999 0.233
-6.6230001 -4.8499999 -1.392
-6.6230001 -4.8660002 -1.3940001
-6.6059999 -4.8860002 -1.3940001
-6.5910001 -4.9060001 -1.3940001
-6.309 -4.9289999 0.391
-6.3000002 -4.954 0.391
-6.6680002 -4.9749999 -0.82200003
-6.724 -4.8369999 -0.51099998
-6.6279998 -4.8000002 -0.50199997
-6.6100001 -4.8179998 -0.50199997
-6.5949998 -4.8390002 -0.50199997
-6.8299999 -5.0300002 -0.528
-6.7399998 -4.8179998 -0.81800002
-6.618 -4.947 -0.85799998
-6.7140002 -4.8309999 -0.81599998
-6.5949998 -4.7210002 0.331
-6.6950002 -4.8460002 0.19400001
-6.7280002 -4.9520001 -0.56699997
-6.6209998 -4.7709999 0.33199999
-6.6040001 -4.5370002 0.391
-6.5960002 -4.5619998 0.391
-6.592 -4.5749998 0.391
-6.5840001 -4.5999999 0.391
-6.5879998 -4.6329999 0.39199999
-6.5879998 -4.664 0.39199999
-6.573 -4.6849999 0.39199999
-6.6620002 -4.7810001 0.39500001
-6.7020001 -4.842 0.39700001
-6.6849999 -4.8449998 0.396
-6.6729999 -4.868 0.396
-6.6360002 -4.8740001 0.396
-6.5809999 -4.783 0.23199999
-6.4510002 -4.8309999 0.39199999
-6.5279999 -4.9219999 0.39399999
-6.4970002 -4.914 0.39399999
-6.592 -4.8449998 0.33199999
-6.4330001 -4.9289999 0.39300001
-6.671 -4.789 -1.562
-6.645 -4.802 -1.559
-6.619 -4.8140001 -1.556
-6.6030002 -4.835 -1.556
-6.5910001 -4.8579998 -1.557
-6.6090002 -4.8870001 -1.563
-6.6820002 -4.8150001 -0.65899998
-6.6529999 -4.8249998 -0.65799999
-6.6329999 -4.8429999 -0.65700001
-6.6110001 -4.8590002 -0.65600002
-6.6680002 -5.0240002 -0.82599998
-6.6409998 -4.987 -0.81999999
-6.6739998 -4.7709999 -0.76099998
-6.658 -4.79 -0.75999999
-6.6350002 -4.8049998 -0.759
-6.6399999 -4.8249998 -0.76099998
-6.5939999 -4.8239999 -0.75700003
-6.6110001 -4.868 -0.76099998
-6.6220002 -4.9400001 -0.76700002
-6.605 -4.96 -0.76700002
-6.573 -4.9689999 -0.76499999
-6.6420002 -5.0359998 -0.77600002
-6.7119999 -4.8210001 -1.0089999
-6.678 -4.8280001 -1.005
-6.6719999 -4.8390002 -1.006
-6.658 -4.862 -1.006
-6.6550002 -4.8920002 -1.008
-6.6490002 -4.9200001 -1.01
-6.6370001 -4.8280001 -1.392
-6.6350002 -4.927 -0.85799998
-6.658 -5.0500002 -0.82700002
-6.7309999 -4.8130002 -0.71799999
-6.7080002 -4.8280001 -0.71700001
-6.6719999 -4.8340001 -0.71399999
-6.6630001 -4.8590002 -0.71499997
-6.6659999 -4.8930001 -0.71700001
-6.5960002 -4.9629998 -0.85699999
-6.6370001 -4.8839998 0.141
-6.671 -4.823 -0.36399999
-6.6389999 -4.816 -0.36199999
-6.5300002 -4.7690001 -0.354
-6.7129998 -4.934 -0.37099999
-6.6399999 -4.9120002 -0.366
-6.6869998 -4.809 -0.059
-6.6620002 -4.823 -0.059
-6.6059999 -4.8150001 -0.057
-6.6329999 -4.8660002 -0.059
-6.651 -4.9029999 -1.068
-6.6059999 -5.0019999 -0.861
-6.6880002 -4.8099999 0.090000004
-6.6350002 -4.803 0.090999998
-6.6170001 -4.822 0.090999998
-6.6129999 -4.8509998 0.090999998
-6.6149998 -4.868 0.090000004
-6.6989999 -4.8119998 -0.163
-6.6919999 -4.8390002 -0.164
-6.652 -4.8260002 -0.162
-6.6560001 -4.8610001 -0.163
-6.6539998 -4.8909998 -0.164
-6.3210001 -4.7379999 0.47600001
-6.6989999 -5.0630002 -0.93300003
