# .PCD v0.7 - Point Cloud Data file format
VERSION 0.7
FIELDS x y z
SIZE 4 4 4
TYPE F F F
COUNT 1 1 1
WIDTH 151
HEIGHT 1
VIEWPOINT 0 0 0 1 0 0 0
POINTS 151
DATA ascii
-3.53 -49.653 0.96499997
-3.378 -49.715 0.96600002
-3.224 -49.765999 0.96600002
-3.1029999 -50.341999 0.97500002
-3.0739999 -52.540001 1.008
-2.911 -52.575001 1.0089999
-2.829 -52.605999 1.0089999
-2.6700001 -52.726002 1.011
-2.536 -53.389 1.021
-2.4349999 -54.895 1.044
-2.2639999 -54.932999 1.044
-2.1099999 -55.421001 1.051
-1.96 -56.105 1.062
-1.921 -57.573002 1.084
-1.742 -57.626999 1.085
-1.58 -58.341999 1.096
-1.416 -59.133999 1.108
-1.2539999 -60.268002 1.125
-1.073 -60.729 1.132
-0.89300001 -61.438 1.142
-0.81 -62.432999 1.158
-0.62800002 -63.862999 1.179
-0.43000001 -64.264999 1.1849999
-0.23199999 -65.066002 1.198
-3.1370001 -50.416 0.366
-3.1819999 -52.452999 0.37200001
-3.0179999 -52.473999 0.37200001
-2.855 -52.515999 0.373
-2.073 -55.658001 2.092
-2.5699999 -53.451 0.375
-2.4319999 -54.118 0.37799999
-2.2909999 -54.817001 0.38
-2.233 -55.512001 0.382
-2.0829999 -56.178001 0.384
-1.932 -56.924 0.38600001
-1.777 -57.688 0.389
-1.617 -58.443001 0.391
-1.4529999 -59.213001 0.39399999
-1.284 -60.002998 0.396
-1.207 -60.862999 0.39899999
-1.024 -61.339001 0.40000001
-0.84799999 -62.541 0.40400001
-0.91100001 -61.518002 1.899
-0.46900001 -64.436996 0.41
-0.271 -65.365997 0.41299999
-3.368 -49.730999 1.344
-3.2119999 -49.741001 1.344
-3.085 -50.23 1.354
-2.98 -52.584 1.408
-2.8150001 -52.606998 1.408
-2.652 -52.669998 1.409
-2.516 -53.299 1.424
-2.421 -54.959999 1.461
-2.2460001 -54.924 1.46
-2.0869999 -55.290001 1.4680001
-2.026 -56.022999 1.485
-1.902 -57.618 1.521
-1.721 -57.612999 1.521
-1.556 -58.231998 1.535
-1.3890001 -58.950001 1.551
-1.2309999 -60.310001 1.582
-1.046 -60.581001 1.5880001
-0.96399999 -61.428001 1.608
-0.78200001 -62.376999 1.6289999
-0.60000002 -63.859001 1.663
-0.40099999 -64.112 1.669
-0.20200001 -65.081001 1.691
-2.7049999 -52.806 0.373
-1.4450001 -58.639 2.1930001
-1.37 -59.403 2.2179999
-0.66100001 -63.467999 0.40700001
-2.9849999 -50.693001 0.12800001
-3.013 -52.591999 0.125
-3.382 -49.758999 0.71100003
-3.2249999 -49.758999 0.71100003
-3.187 -50.398998 0.71700001
-3.155 -52.528999 0.73900002
-2.9909999 -52.571999 0.73900002
-2.8269999 -52.598999 0.73900002
-2.6719999 -52.810001 0.74199998
-2.536 -53.465 0.74800003
-2.4319999 -54.912998 0.76300001
-3.5320001 -49.664001 0.70999998
-2.197 -55.548 0.76899999
-2.046 -56.194 0.77499998
-1.914 -57.583 0.78899997
-1.735 -57.645 0.79000002
-1.576 -58.487999 0.79799998
-1.409 -59.188 0.80500001
-1.336 -60.108002 0.815
-2.5450001 -53.202 0.124
-0.97899997 -61.474998 0.82800001
-0.79900002 -62.484001 0.83899999
-0.61500001 -63.821999 0.852
-0.41800001 -64.411003 0.85799998
-0.21799999 -65.304001 0.86699998
-2.408 -53.890999 0.123
-1.609 -57.881001 2.1670001
-3.3050001 -49.599998 1.575
-3.168 -49.904999 1.5829999
-3.1289999 -50.530998 1.6
-3.0799999 -52.397999 1.651
-2.9189999 -52.473 1.653
-2.7579999 -52.562 1.655
-2.6129999 -52.967999 1.666
-2.473 -53.533001 1.681
-2.365 -54.921001 1.719
-2.279 -54.945999 1.72
-2.1340001 -55.648998 1.739
-1.98 -56.259998 1.755
-1.847 -57.606998 1.7920001
-1.671 -57.773998 1.7970001
-1.512 -58.623001 1.8200001
-1.364 -60.217999 1.864
-1.272 -60.324001 1.867
-1.095 -61.029999 1.886
-1.024 -61.030998 2.273
-0.73100001 -62.667 1.931
-0.54500002 -63.84 1.9630001
-0.34900001 -64.611 1.984
-0.148 -65.440002 2.007
-2.345 -54.907001 0.76300001
-0.27000001 -64.637001 2.395
-0.171 -65.591003 2.427
-1.161 -60.855999 0.82200003
-2.8499999 -52.645 0.125
-3.266 -49.738998 1.895
-3.1960001 -49.877998 1.899
-3.076 -50.492001 1.92
-2.9489999 -51.054001 1.938
-2.8410001 -52.047001 1.972
-2.691 -52.305 1.98
-2.5569999 -52.945999 2.0020001
-2.418 -53.577 2.023
-2.3599999 -54.181999 2.043
-2.2179999 -54.905998 2.0669999
-2.6860001 -52.678001 0.125
-1.92 -56.317001 2.115
-1.765 -57.023998 2.138
-2.2650001 -54.530998 0.122
-2.119 -55.212002 0.121
-2.0569999 -55.890999 0.12
-1.199 -60.214001 2.2460001
-1.749 -57.346001 0.118
-0.838 -61.481998 2.2880001
-0.65799999 -62.813 2.3329999
-0.46700001 -63.714001 2.3640001
-1.0829999 -60.514999 0.113
-1.001 -61.346001 0.111
-0.815 -61.845001 0.111
-0.63200003 -63.025002 0.109
