# .PCD v0.7 - Point Cloud Data file format
VERSION 0.7
FIELDS x y z
SIZE 4 4 4
TYPE F F F
COUNT 1 1 1
WIDTH 263
HEIGHT 1
VIEWPOINT 0 0 0 1 0 0 0
POINTS 263
DATA ascii
3.8770001 -38.941002 1.5319999
7.3540001 -37.762001 -0.79900002
4.1529999 -39.213001 1.5420001
4.2909999 -39.334 1.5470001
4.1300001 -36.801998 1.461
4.2600002 -36.91 1.466
4.3779998 -36.914001 1.466
4.4050002 -36.653 1.457
4.6399999 -36.665001 1.459
4.8010001 -37.000999 1.471
4.974 -37.41 1.485
5.1370001 -37.722 1.4960001
5.2150002 -37.418999 1.487
5.316 -37.712002 1.497
5.3959999 -37.428001 1.488
5.7340002 -38.075001 1.511
5.8850002 -38.254002 1.518
5.8530002 -37.276001 1.485
5.9689999 -37.25 1.485
6.296 -38.893002 1.541
6.3410001 -38.405998 1.525
6.4499998 -38.317001 1.523
6.5170002 -37.985001 1.512
6.7659998 -38.702999 1.538
11.904 -38.273998 -1.579
7.3860002 -37.596001 -0.33199999
6.0349998 -38.313999 0.146
6.1529999 -38.283001 0.146
5.1919999 -37.889 -1.27
5.3260002 -37.984001 -1.275
6.4520001 -38.226002 0.146
5.664 -39.051998 -1.317
5.927 -39.973 -1.354
6.809 -38.146 0.146
5.9640002 -38.556 -1.3
6.0760002 -38.484001 -1.298
6.1279998 -38.039001 -1.281
6.1890001 -38.033001 -1.281
6.296 -37.942001 -1.279
6.4130001 -37.905998 -1.278
6.533 -37.891998 -1.278
6.6539998 -37.881001 -1.279
6.8639998 -37.687 -1.273
6.947 -37.807999 -1.278
7.0799999 -37.861 -1.281
7.3249998 -38.498001 -1.307
7.428 -38.381001 -1.303
7.5219998 -38.223999 -1.298
4.6729999 -37.997002 0.79000002
4.7989998 -38.032001 0.79100001
15.533 -37.013 -1.582
12.578 -38.105999 -1.581
7.2340002 -37.775002 -0.79799998
12.71 -38.105999 -1.5829999
7.2909999 -37.741001 -0.333
4.6760001 -38.243999 0.147
4.7940001 -38.213001 0.147
4.7220001 -38.201 -0.602
5.8629999 -38.064999 -0.602
5.9790001 -38.023998 -0.602
6.033 -37.977001 -0.60100001
6.1539998 -37.967999 -0.60100001
4.698 -38.382999 0.329
6.388 -37.903 -0.60100001
6.507 -37.882999 -0.60100001
6.6230001 -37.846001 -0.60100001
6.7420001 -37.825001 -0.60100001
6.8010001 -37.813 -0.60000002
6.9219999 -37.800999 -0.60100001
7.039 -37.771 -0.60100001
7.4159999 -37.764 -0.79900002
7.2779999 -37.737999 -0.60100001
7.369 -37.571999 -0.59799999
7.5689998 -37.962002 -0.60699999
12.023 -38.235001 -1.579
13.008 -38.001999 -1.5829999
3.6500001 -38.073002 1.079
3.777 -38.132999 1.081
3.9349999 -38.491001 1.09
4.6919999 -38.181 1.084
6.3909998 -38.231998 0.146
5.3150001 -37.834999 1.0779999
5.441 -37.868999 1.08
5.5450001 -37.747002 1.077
5.632 -37.93 1.082
5.4190001 -38.209 -1.284
6.152 -37.376999 1.071
6.283 -37.441002 1.073
6.362 -37.550999 1.076
6.5689998 -38.189999 0.146
13.106 -37.897999 -1.58
6.6890001 -38.168999 0.146
9.7060003 -39.083 -1.5880001
6.2199998 -41.051998 -1.397
10.022 -39.043999 -1.589
11.671 -38.373001 -1.58
6.9289999 -38.124001 0.146
7.046 -38.085999 0.146
7.1659999 -38.07 0.146
15.262 -37.018002 -1.577
13.226 -37.861 -1.58
7.2290001 -38.076 0.146
7.348 -38.049 0.146
12.445 -38.105999 -1.579
6.0489998 -41.424 -1.136
10.794 -38.747002 -1.585
10.913 -38.705002 -1.585
13.348 -37.827999 -1.581
11.041 -38.694 -1.586
11.173 -38.695 -1.5880001
11.459 -38.544998 -1.585
11.558 -38.438 -1.582
4.7709999 -38.078999 -1.024
4.9039998 -38.171001 -1.027
5.0110002 -38.056 -1.024
5.1599998 -38.264 -1.031
5.263 -38.570999 -1.0420001
5.4359999 -38.923 -1.054
5.6589999 -39.618 -1.077
4.7270002 -38.143002 -0.333
5.9120002 -37.966999 -1.025
6.0050001 -38.167 -1.0319999
6.1020002 -38.009998 -1.028
6.3429999 -37.983002 -1.028
6.4580002 -37.938999 -1.027
6.5770001 -37.917 -1.027
6.6900001 -37.860001 -1.026
6.7839999 -38.047001 -1.033
5.875 -38.060001 -0.33399999
5.934 -38.047001 -0.33399999
6.052 -38.021999 -0.33399999
6.1680002 -37.979 -0.33399999
6.2849998 -37.945999 -0.33399999
6.4039998 -37.924 -0.33399999
6.5209999 -37.894001 -0.333
6.638 -37.862999 -0.333
6.6989999 -37.860001 -0.333
6.8169999 -37.831001 -0.333
6.934 -37.799999 -0.333
7.052 -37.778 -0.333
7.1719999 -37.761002 -0.333
4.6220002 -38.174999 0.59600002
4.737 -38.120998 0.59500003
7.6420002 -38.577 -0.34599999
5.6209998 -38.215 -1.5140001
5.8189998 -38.715 -1.538
5.9349999 -38.662998 -1.536
6.3070002 -40.250999 -1.608
6.46 -40.397999 -1.6160001
6.5960002 -40.429001 -1.618
6.6550002 -40.396999 -1.617
6.763 -40.262001 -1.612
6.8610001 -40.075001 -1.605
6.987 -40.049 -1.605
7.1079998 -40.002998 -1.603
7.2270002 -39.945 -1.602
7.3520002 -39.917 -1.602
7.3909998 -39.775002 -1.596
7.5019999 -39.679001 -1.592
7.6259999 -39.653 -1.592
7.8280001 -39.366001 -1.582
7.9629998 -39.397999 -1.584
8.0769997 -39.326 -1.582
8.1280003 -39.262001 -1.58
8.2449999 -39.205002 -1.5779999
8.3629999 -39.157001 -1.577
8.4890003 -39.143002 -1.5779999
8.6029997 -39.077 -1.576
8.7189999 -39.015999 -1.575
8.8360004 -38.965 -1.573
8.9060001 -38.990002 -1.575
9.033 -38.984001 -1.576
9.1680002 -39.008999 -1.579
9.309 -39.057999 -1.582
9.4510002 -39.106998 -1.586
9.5749998 -39.082001 -1.586
2.823 -38.383999 1.266
2.9460001 -38.409 1.267
10.115 -38.896999 -1.584
10.224 -38.814999 -1.582
10.345 -38.782001 -1.582
10.466 -38.745998 -1.581
10.534 -38.756001 -1.5829999
10.669 -38.769001 -1.585
3.7079999 -38.110001 1.261
3.806 -37.882999 1.255
4.0479999 -38.477001 1.272
4.158 -37.263 1.239
4.2579999 -37.103001 1.235
4.3670001 -37.023998 1.233
4.4699998 -36.415001 1.217
4.8109999 -38.212002 1.267
4.9289999 -38.176998 1.266
5.053 -38.191002 1.267
12.083 -38.214001 -1.579
12.202 -38.174 -1.579
12.324 -38.140999 -1.579
5.48 -38.185001 1.2690001
5.5209999 -37.631001 1.2539999
5.6420002 -37.630001 1.2539999
12.922 -38.341 -1.596
12.945 -38.209 -1.591
5.9840002 -37.498001 1.252
6.0679998 -37.272999 1.2460001
6.164 -37.493 1.253
6.2659998 -37.375 1.25
6.3590002 -37.213001 1.2460001
13.588 -37.749001 -1.581
13.659 -37.759998 -1.582
13.464 -37.778999 -1.58
13.903 -37.692001 -1.5829999
11.786 -38.320999 -1.58
14.416 -37.620998 -1.5880001
14.427 -37.473 -1.582
14.5 -37.312 -1.577
14.6 -37.223999 -1.575
14.712 -37.165001 -1.574
14.823 -37.105 -1.574
14.953 -37.091999 -1.575
15.079 -37.069 -1.576
15.141 -37.051998 -1.577
6.2709999 -37.937 -0.60100001
15.396 -37.012001 -1.579
4.6570001 -38.166 -0.097000003
4.7789998 -38.165001 -0.097000003
13.78 -37.723999 -1.5829999
5.8769999 -38.154999 -0.097999997
6.0 -38.153999 -0.098999999
6.118 -38.123001 -0.097999997
6.2379999 -38.108002 -0.098999999
6.3530002 -38.060001 -0.097999997
6.4749999 -38.051998 -0.097999997
6.5300002 -38.014 -0.097999997
6.6500001 -37.995998 -0.097999997
6.77 -37.978001 -0.097999997
6.8870001 -37.949001 -0.097999997
7.006 -37.921001 -0.097999997
7.125 -37.903 -0.097999997
7.243 -37.875 -0.097999997
7.2709999 -37.698002 -0.097000003
7.619 -38.851002 -0.106
6.869 -37.832001 -1.026
7.1110001 -37.810001 -1.027
14.048 -37.721001 -1.587
7.2550001 -37.923 -1.031
7.158 -37.749001 -0.60100001
7.3429999 -37.737 -1.026
7.5089998 -37.952999 -1.034
6.2729998 -38.259998 0.146
5.8150001 -38.088001 -0.80000001
5.8720002 -38.061001 -0.80000001
5.9920001 -38.042 -0.80000001
6.1090002 -38.007999 -0.79900002
6.2259998 -37.976002 -0.79900002
6.3439999 -37.946999 -0.79900002
6.461 -37.912998 -0.79799998
6.5809999 -37.900002 -0.79799998
6.6399999 -37.883999 -0.79799998
6.756 -37.851002 -0.79799998
6.8759999 -37.834 -0.79799998
6.9949999 -37.812 -0.79799998
7.1129999 -37.787998 -0.79799998
3.71 -37.873001 1.4960001
