# .PCD v0.7 - Point Cloud Data file format
VERSION 0.7
FIELDS x y z
SIZE 4 4 4
TYPE F F F
COUNT 1 1 1
WIDTH 135
HEIGHT 1
VIEWPOINT 0 0 0 1 0 0 0
POINTS 135
DATA ascii
33.580002 33.784 1.293
33.210999 33.835999 1.288
35.376999 33.348 -0.177
35.648998 33.327999 -0.479
35.463001 33.362999 -0.477
34.917 33.474998 -0.47299999
34.810001 33.477001 -0.47099999
34.776001 33.655998 -0.47299999
34.473999 33.785999 -0.47099999
34.112 33.854 -0.46799999
33.859001 33.813999 -0.465
33.611 33.671001 -0.461
33.443001 33.714001 -0.46000001
33.257 33.737999 -0.45899999
33.085999 33.777 -0.45699999
32.918999 33.817001 -0.456
32.755001 33.862 -0.45500001
32.674999 33.992001 -0.45500001
32.625999 34.154999 -0.45699999
32.622002 34.257999 -0.458
32.555 34.403999 -0.458
32.487 34.549 -0.45899999
32.460999 34.740002 -0.461
32.865002 35.394001 -0.472
32.778999 35.525002 -0.472
35.698002 33.234001 -1.357
35.491001 33.25 -1.352
34.174 33.775002 -1.3329999
33.467999 33.495998 -1.311
33.379002 33.511002 -1.3099999
33.238998 33.582001 -1.308
32.841999 33.812 -1.304
32.730999 33.910999 -1.304
32.396999 34.096001 -1.301
32.426998 34.558998 -1.312
32.611 34.974998 -1.326
32.556999 35.138 -1.329
32.534 35.334999 -1.3329999
32.528999 35.441002 -1.335
32.465 35.595001 -1.3380001
32.401001 35.75 -1.34
32.359001 35.93 -1.3430001
33.993999 33.639 1.523
33.272999 33.763 1.511
33.140999 33.735001 1.508
35.792 33.317001 -0.18000001
35.577999 33.327 -0.178
33.236 33.738998 0.68599999
34.123001 33.825001 -0.17299999
33.745998 33.661999 -0.17
33.561001 33.688999 -0.169
33.396 33.735001 -0.168
33.207001 33.755001 -0.167
33.039001 33.797001 -0.167
32.879002 33.846001 -0.16599999
32.791 33.861 -0.16599999
32.549999 34.467999 -0.168
32.492001 34.624001 -0.168
32.408001 35.863998 -0.80800003
35.762001 33.324001 -1.0700001
35.585999 33.368999 -1.067
35.437 33.439999 -1.066
34.236 33.866001 -1.051
34.039001 33.882999 -1.048
33.743999 33.695 -1.039
33.567001 33.73 -1.036
33.359001 33.730999 -1.0319999
33.187 33.769001 -1.03
33.025002 33.814999 -1.028
32.872002 33.872002 -1.026
32.758999 33.967999 -1.026
32.743999 34.058998 -1.027
32.665001 34.191002 -1.028
32.626999 34.367001 -1.031
32.577999 34.532001 -1.033
32.534 34.702999 -1.036
32.893002 35.308998 -1.054
32.751999 35.380001 -1.053
32.748001 35.487 -1.0549999
32.698002 35.657001 -1.057
32.610001 35.785999 -1.058
32.507 35.898998 -1.058
32.393002 36.0 -1.058
34.431 33.845001 0.132
34.307999 33.830002 0.132
34.124001 33.860001 0.132
33.784 33.734001 0.132
33.606998 33.769001 0.133
33.436001 33.808998 0.133
33.243999 33.827 0.133
33.074001 33.865002 0.133
32.98 33.875999 0.133
32.834999 33.938999 0.133
32.743 34.057999 0.133
32.625 35.353001 0.132
33.265999 33.662998 -1.62
32.353001 34.212002 -1.6109999
32.407001 34.485001 -1.62
32.304001 35.030998 -1.633
32.229 35.171001 -1.635
32.167999 35.327 -1.638
35.866001 33.278999 -0.82099998
35.692001 33.327999 -0.81900001
35.52 33.376999 -0.81699997
34.966 33.481998 -0.81
34.521999 33.792999 -0.80800003
34.320999 33.807999 -0.80500001
34.168999 33.869999 -0.80400002
33.82 33.736 -0.79699999
33.613998 33.742001 -0.79400003
33.425999 33.764999 -0.79100001
33.304001 33.747002 -0.78899997
33.137001 33.791 -0.787
32.977001 33.839001 -0.78600001
32.82 33.889999 -0.78399998
32.734001 34.014999 -0.78500003
32.695999 34.189999 -0.787
32.629002 34.334 -0.78799999
32.619999 34.432999 -0.78899997
32.578999 34.606998 -0.792
32.865002 35.131001 -0.80400002
32.917999 35.41 -0.80900002
32.703999 35.401001 -0.80500001
32.695999 35.617001 -0.80900002
32.603001 35.741001 -0.80900002
32.57 35.817001 -0.81
34.493999 34.004002 0.359
34.049 33.778 0.35800001
33.664001 33.605999 0.35699999
33.485001 33.638 0.35600001
33.139 33.712002 0.35600001
32.682999 33.987999 0.35499999
32.632 34.148998 0.35600001
32.353001 35.27 0.35800001
32.23 35.583 0.35800001
