# .PCD v0.7 - Point Cloud Data file format
VERSION 0.7
FIELDS x y z
SIZE 4 4 4
TYPE F F F
COUNT 1 1 1
WIDTH 84
HEIGHT 1
VIEWPOINT 0 0 0 1 0 0 0
POINTS 84
DATA ascii
-22.167 61.069 -0.70499998
-22.304001 61.146999 -0.70700002
-19.084 64.137001 -0.322
-19.67 61.48 -0.303
-21.183001 60.400002 1.181
-19.247 61.487999 -0.30199999
-22.028999 61.455002 -1.164
-21.851999 59.595001 1.173
-21.979 59.363998 1.171
-22.167999 59.300999 1.171
-19.871 61.037998 0.40900001
-20.738001 62.283001 0.105
-19.103001 62.210999 -0.70700002
-19.787001 61.518002 -1.15
-20.025 60.859001 0.40900001
-20.702999 61.691002 -0.30700001
-19.062 63.334 -0.31600001
-20.832001 61.436001 -0.30599999
-20.724001 62.238998 -1.506
-20.910999 61.037998 -0.303
-19.037001 61.308998 -0.69400001
-19.034 62.527 -0.30899999
-19.537001 61.217999 -0.69499999
-18.992001 61.349998 -0.30000001
-21.143 61.089001 -0.30399999
-18.582001 60.872002 -1.455
-20.011999 63.153999 0.41600001
-21.330999 61.011002 -0.30399999
-20.690001 62.304001 -1.171
-22.462 59.438999 1.656
-20.462999 62.273998 -1.169
-19.663 63.339001 0.104
-19.406 64.287003 0.102
-19.201 63.251999 0.104
-19.396 63.18 0.104
-20.753 62.313 -0.71499997
-19.757999 62.945999 0.104
-18.877001 60.979 -1.133
-20.275999 63.203999 0.104
-20.014999 63.069 0.104
-20.818001 60.846001 0.85699999
-19.844 61.856998 -1.489
-18.941999 61.529999 -0.30199999
-20.391001 60.605999 0.107
-20.58 60.537998 0.107
-19.476 61.540001 -0.303
-22.257999 59.222 0.84600002
-20.292 62.749001 -0.31400001
-21.948999 60.480999 0.107
-22.316999 60.897999 0.106
-22.058001 59.612 0.108
-22.239 59.528 0.108
-22.259001 59.296001 0.108
-19.582001 63.172001 0.41499999
-21.559 60.742001 -0.30199999
-21.955 61.248001 -0.30700001
-21.872 60.417 -0.301
-21.839001 59.737 -0.296
-22.077999 59.808998 -0.29699999
-22.162001 59.459999 -0.294
-22.297001 59.251999 -0.29300001
-20.319 60.473 0.40799999
-20.440001 60.203999 0.40700001
-21.023001 62.0 -1.168
-20.165001 60.644001 0.40799999
-18.877001 63.602001 -0.72399998
-21.555 60.659 0.41
-21.745001 60.589001 0.41
-22.226 59.505001 1.954
-22.422001 59.459 1.955
-19.195999 61.143002 -0.69300002
-19.705 62.418999 -0.71200001
-21.988001 58.641998 0.40400001
-19.832001 61.476002 -0.69999999
-20.094 61.625 -0.70300001
-20.547001 62.347 -0.71499997
-20.797001 61.974998 -1.166
-21.077999 62.630001 -0.72100002
-20.909 61.808998 -0.70899999
-21.009001 61.466999 -0.70499998
-21.153999 61.262001 -0.70300001
-21.261 60.952 -0.699
-21.565001 61.202 -0.704
-21.702999 60.382 -0.69400001
