# .PCD v0.7 - Point Cloud Data file format
VERSION 0.7
FIELDS x y z
SIZE 4 4 4
TYPE F F F
COUNT 1 1 1
WIDTH 277
HEIGHT 1
VIEWPOINT 0 0 0 1 0 0 0
POINTS 277
DATA ascii
43.048 21.408001 0.69300002
44.266998 24.841999 -1.119
43.071999 21.587999 0.69400001
47.792999 21.42 -1.472
47.749001 21.49 -1.472
47.046001 21.530001 -1.452
46.969002 21.674 -1.451
46.646 21.702999 -1.442
46.403999 21.768 -1.436
46.186001 21.754 -1.4299999
45.890999 21.792 -1.4220001
45.688999 21.872 -1.4170001
44.428001 21.441 -1.375
44.346001 21.573999 -1.374
44.373001 21.76 -1.377
44.484001 21.987 -1.3839999
44.612 22.664 -1.397
44.610001 22.84 -1.4
43.272999 22.288 0.699
44.791 23.737 -1.418
42.633999 22.767 -1.3430001
42.601002 22.922001 -1.344
45.285999 22.027 -0.191
42.540001 23.235001 -1.347
44.976002 24.655001 -1.437
44.513 24.584 -1.423
44.373001 24.688999 -1.421
44.27 24.813999 -1.42
43.348 22.673 0.70200002
42.68 24.277 -1.367
42.825001 24.539 -1.375
44.893002 24.790001 -0.198
45.386002 26.479 -1.477
43.384998 22.865999 0.70300001
47.407001 21.601 -0.88700002
44.264999 22.135 -0.184
44.875999 25.556 -1.142
46.703999 21.636 -0.87400001
44.838001 20.823999 0.70700002
44.553001 20.862 0.704
44.292 20.91 0.70200002
44.062 20.969999 0.69999999
47.863998 21.357 -0.207
43.554001 20.98 0.69599998
47.863998 21.378 0.37200001
43.108002 21.101 0.69199997
46.862 21.620001 -0.20100001
46.618999 21.597 -0.199
46.349998 21.65 -0.197
46.316002 21.812 -0.198
46.051998 21.864 -0.19599999
45.768002 21.906 -0.19400001
45.439999 21.924999 -0.192
43.325001 22.488001 0.69999999
45.084 22.016001 -0.19
46.348 22.813 -0.20100001
43.442001 22.983 0.704
43.469002 23.173 0.70499998
44.575001 22.466 -0.18799999
43.643002 24.153999 0.71100003
44.646999 22.855 -0.19
44.664001 22.952 -0.19
46.91 21.573999 0.37
44.806 23.561001 -0.193
44.764999 23.719 -0.19400001
44.891998 24.24 -0.19599999
45.605 24.809999 -0.20299999
45.000999 24.665001 -0.199
45.284 22.113001 -0.852
44.272999 24.629 -0.19400001
44.160999 24.749001 -0.193
43.992001 24.836 -0.192
44.158001 25.021999 -0.19400001
44.964001 25.664 -0.20200001
44.462002 22.059 -0.83600003
44.228001 22.030001 -0.83099997
44.679001 24.763 -0.866
44.034 22.106001 -0.82800001
44.041 22.283001 -0.82999998
41.908001 22.677999 -1.633
44.696999 22.791 -0.847
44.652 22.945 -0.84799999
44.952 25.844999 -0.20299999
43.893002 24.927 0.71700001
42.763 22.573 -0.80900002
42.791 23.049 -1.063
43.141998 23.121 -0.82099998
42.618 23.129 -1.0599999
42.980999 23.209 -0.81900001
42.622002 23.218 -1.061
42.779999 23.274 -0.81599998
44.352001 26.778999 0.73100001
42.611 23.385 -1.063
44.808998 24.650999 -0.86699998
47.963001 21.436001 -1.165
47.82 21.552 -1.163
47.075001 21.573 -1.146
47.004002 21.719 -1.146
46.477001 21.742001 -1.133
46.222 21.799999 -1.128
46.005001 21.875 -1.124
45.369999 21.923 -1.109
45.247002 22.039 -1.108
44.914001 22.051001 -1.1
44.687 22.114 -1.096
44.255001 21.987 -1.084
44.025002 22.045 -1.079
44.029999 22.221001 -1.081
44.495998 22.632 -1.097
44.573002 22.848 -1.101
47.966 21.437 0.125
47.883999 21.580999 0.125
47.620998 21.643 0.125
47.341999 21.695 0.126
47.091999 21.67 0.126
46.640999 21.819 0.127
46.386002 21.877001 0.127
46.115002 21.927 0.127
45.868999 21.986 0.12800001
45.599998 22.034 0.12800001
44.417999 22.038 -0.185
45.153 22.08 0.12899999
44.648998 22.007999 0.12899999
44.403999 22.061001 0.13
44.458 22.261999 0.12899999
43.206001 21.804001 0.131
43.448002 22.098 0.131
42.668999 21.785999 0.132
42.530998 21.884001 0.132
42.398998 21.985001 0.132
42.268002 22.086 0.133
42.168999 22.202999 0.133
42.139 22.357 0.133
42.091999 22.500999 0.133
42.097 22.589001 0.132
42.049999 22.733999 0.132
42.099998 22.933001 0.132
42.248001 23.186001 0.132
42.331001 23.405001 0.132
46.433998 21.566 0.98699999
46.185001 21.627001 0.98400003
46.036999 21.733999 0.98199999
45.563999 21.687 0.97500002
45.292 21.732 0.972
45.209 21.867001 0.972
44.728001 21.809 0.96499997
44.455002 21.761999 0.96100003
44.377998 21.896999 0.96100003
44.083 21.924999 0.95700002
44.193001 22.152 0.95999998
44.144001 22.302 0.95999998
44.27 22.540001 0.963
44.348999 22.756001 0.96600002
44.428001 22.885 0.96799999
44.417 23.056 0.96899998
44.453999 23.252001 0.97100002
44.557999 23.485001 0.97399998
44.633999 23.705 0.977
44.691002 23.916 0.97899997
44.620998 24.059 0.97899997
44.799999 24.246 0.98299998
44.856998 24.459 0.98500001
44.948002 24.691999 0.98799998
44.848999 24.822001 0.98799998
46.990002 21.59 -0.87900001
44.667999 22.812 -0.498
47.541 21.572001 -0.206
44.925999 24.83 0.36899999
44.443001 26.643999 0.73100001
41.889 22.837999 -1.635
42.418999 21.989 0.35699999
43.191002 21.903 0.69700003
47.014999 21.444 0.37
42.513 23.047001 -1.3430001
47.879002 21.492001 -0.52999997
45.355 22.003 0.12800001
42.981998 24.271 -1.376
42.296001 22.094 0.35699999
44.610001 22.659 -0.189
45.111 25.129999 0.126
42.860001 24.827 -1.381
45.173 25.35 0.126
43.123001 23.052999 -1.0700001
44.145 25.716 0.72299999
44.792 26.322001 -1.459
45.193001 25.642 0.126
45.161999 25.813 0.126
43.168999 21.722 0.69599998
45.278 26.257999 0.125
45.241001 26.427 0.125
42.014 22.395 -1.631
47.922001 21.472 -0.89600003
47.660999 21.535999 -0.89200002
47.924999 20.777 0.37099999
47.915001 20.862 0.37200001
47.787998 20.986 0.37099999
46.187 21.750999 -0.86500001
46.150002 21.822001 -0.86500001
46.931999 21.139999 0.36899999
45.644001 21.934999 -0.85699999
45.352001 21.969999 -0.852
46.657001 21.636 0.36899999
46.387001 21.688999 0.368
46.148998 21.754 0.368
45.220001 21.490999 0.36500001
44.894001 21.509001 0.36399999
44.240002 21.282 0.36199999
44.553001 21.605 0.36300001
44.401001 21.702999 0.36300001
44.548 21.948999 0.36300001
44.220001 21.961 0.36199999
44.390999 22.219 0.36300001
44.009998 22.202 0.36199999
43.063 21.809999 0.359
42.686001 21.788 0.35800001
42.532001 21.878 0.35800001
44.368999 25.139999 -0.86400002
44.951 25.844 -0.88200003
42.238998 22.233 0.35699999
42.196999 22.381001 0.35699999
42.202999 22.469 0.35800001
42.194 22.634001 0.35800001
42.337002 22.882 0.359
44.917999 24.458 0.368
44.936001 24.650999 0.368
44.557999 23.075001 -0.19
44.706001 24.892 0.368
45.060001 25.181999 0.37
45.118999 25.400999 0.37
45.043999 25.545 0.37
43.25 22.105 0.69800001
44.666 25.702999 0.36899999
45.167999 26.181 0.37099999
45.226002 25.473 0.126
43.109001 23.136999 -0.47999999
44.162998 24.966 -1.118
42.007 22.561001 -1.6339999
44.271999 24.940001 -0.50700003
44.678001 24.945999 -0.86799997
43.529999 23.381001 0.70599997
45.105999 25.334999 0.995
45.165001 25.555 0.99699998
44.622002 24.673 -1.125
45.082001 25.601 0.99599999
42.16 22.304001 -1.635
44.585999 25.077999 -0.86799997
46.000999 21.929001 -0.86299998
47.605 21.549 -0.52700001
47.369999 21.622 -0.52399999
46.942001 21.605 -0.51899999
46.639999 21.643999 -0.51499999
46.160999 21.686001 -0.509
46.095001 21.832001 -0.509
45.898998 21.916 -0.50700003
45.713001 22.004 -0.50599998
45.271999 21.966 -0.5
45.140999 22.079 -0.49900001
44.887001 22.129 -0.49599999
44.618999 22.259001 -0.493
44.333 22.290001 -0.49000001
43.787998 21.009001 0.69800001
44.532001 23.096001 -0.498
42.379002 22.063 -0.46399999
44.685001 23.444 -0.50199997
42.84 22.646999 -0.47400001
47.827999 21.521 -0.208
43.054001 23.282 -0.48100001
44.796001 24.407 -0.50999999
44.991001 24.605 -0.51300001
44.868999 24.722 -0.51300001
44.362 24.806999 -0.50700003
43.317001 21.034 0.69400001
44.231998 25.1 -0.50700003
44.988998 25.718 -0.52100003
44.925999 25.775999 -0.52100003
47.279999 21.632999 -0.204
42.966999 21.198999 0.69099998
