# .PCD v0.7 - Point Cloud Data file format
VERSION 0.7
FIELDS x y z
SIZE 4 4 4
TYPE F F F
COUNT 1 1 1
WIDTH 97
HEIGHT 1
VIEWPOINT 0 0 0 1 0 0 0
POINTS 97
DATA ascii
2.086 12.035 -0.26699999
1.929 11.786 -0.25600001
1.8890001 11.772 -0.25600001
1.849 11.758 -0.255
1.8279999 11.749 -0.25400001
1.789 11.737 -0.25400001
1.709 11.452 -0.242
1.671 11.446 -0.242
1.628 11.397 -0.23999999
1.5880001 11.371 -0.23899999
1.549 11.354 -0.23800001
1.347 12.158 -0.26800001
1.306 12.143 -0.26699999
1.341 13.274 -0.31
1.2970001 13.246 -0.30899999
2.0179999 12.033 -0.050999999
1.975 12.006 -0.050000001
1.934 11.994 -0.050000001
1.895 11.99 -0.048999999
1.9400001 12.653 -0.063000001
1.904 12.687 -0.064000003
1.877 12.776 -0.066
1.626 11.337 -0.035
1.467 13.117 -0.071999997
1.421 13.078 -0.071000002
1.867 11.668 -0.38999999
1.786 11.387 -0.375
1.749 11.383 -0.375
1.712 11.381 -0.375
1.671 11.348 -0.373
1.649 11.327 -0.37099999
1.609 11.297 -0.37
2.2969999 10.967 0.242
1.336 11.596 -0.38299999
1.2869999 11.828 -0.39399999
1.263 12.144 -0.41
1.952 12.898 0.248
1.867 12.741 0.24699999
2.0179999 12.694 0.025
1.975 12.678 0.026000001
1.966 12.888 0.023
1.8710001 12.803 0.024
1.4529999 13.099 0.021
1.4119999 13.105 0.021
2.0580001 11.932 -0.183
1.573 11.302 -0.37
1.943 11.939 -0.183
1.903 11.93 -0.182
1.9220001 12.679 -0.206
1.8890001 12.727 -0.207
1.878 12.928 -0.214
1.599 11.282 -0.16
1.561 11.267 -0.16
1.902 11.763 -0.32600001
1.858 11.724 -0.324
1.775 11.438 -0.31099999
1.735 11.414 -0.31
1.716 11.408 -0.31
1.674 11.374 -0.308
1.635 11.356 -0.30700001
1.358 11.625 -0.317
1.322 11.634 -0.317
1.304 11.801 -0.324
1.289 12.009 -0.33399999
1.9910001 12.623 0.24699999
1.95 12.62 0.24699999
2.3959999 10.934 0.31999999
2.3559999 10.916 0.31999999
2.3310001 10.966 0.32100001
2.273 10.86 0.31900001
1.995 12.702 0.33700001
1.974 12.703 0.33700001
1.964 12.909 0.33899999
1.893 12.707 0.33700001
2.006 12.688 0.105
1.9680001 12.706 0.105
1.956 12.888 0.103
1.859 12.794 0.104
1.4680001 13.319 0.1
1.9680001 12.002 -0.112
1.931 12.008 -0.112
1.9 12.064 -0.114
1.864 12.077 -0.114
1.918 12.7 -0.13
1.876 12.696 -0.13
1.6440001 11.352 -0.093999997
1.625 11.349 -0.093999997
1.586 11.324 -0.093000002
1.433 13.096 -0.139
1.385 13.033 -0.13699999
1.373 13.331 -0.145
1.323 13.035 -0.13699999
2.0079999 12.753 0.186
1.9680001 12.76 0.186
1.931 12.79 0.186
1.905 12.755 0.186
1.428 13.453 0.186
