# .PCD v0.7 - Point Cloud Data file format
VERSION 0.7
FIELDS x y z
SIZE 4 4 4
TYPE F F F
COUNT 1 1 1
WIDTH 143
HEIGHT 1
VIEWPOINT 0 0 0 1 0 0 0
POINTS 143
DATA ascii
39.606998 24.32 -0.44600001
39.507 24.429001 -0.44600001
39.412998 24.542999 -0.44499999
39.441002 24.732 -0.447
39.894001 22.944 -1.2690001
38.525002 23.216999 -1.235
39.693001 24.261 -1.285
39.568001 24.356001 -1.283
39.502998 24.487 -1.283
39.431999 24.615 -1.283
39.983002 25.134001 -1.307
40.112999 25.834 -1.323
37.626999 22.466999 1.413
37.400002 22.490999 1.408
37.401001 22.652 1.41
36.702999 22.388 1.39
36.547001 22.372 1.386
38.380001 23.658001 1.447
38.358002 23.811001 1.449
38.217999 23.891001 1.447
38.321999 24.124001 1.4529999
38.523998 24.42 1.462
38.694 24.698999 1.47
38.493999 24.656 1.465
34.993999 22.572001 1.353
34.904999 22.67 1.352
34.737999 22.718 1.349
39.567001 24.313 0.676
39.448002 24.410999 0.676
39.379002 24.540001 0.676
39.290001 24.656 0.676
37.375 23.781 0.65499997
36.195 23.27 0.64200002
36.290001 23.492001 0.64399999
39.772999 23.037001 -0.156
39.577 23.091 -0.155
39.379002 23.141001 -0.154
39.178001 23.188999 -0.153
39.013 23.174 -0.152
38.810001 23.219 -0.15099999
38.577 23.245001 -0.149
38.467999 23.344 -0.149
39.433998 24.525999 -0.16
37.983002 22.24 1.697
37.960999 22.388 1.699
38.141998 22.656 1.709
36.596001 21.892 1.651
36.592999 22.047001 1.654
36.487999 22.139999 1.652
36.317001 22.114 1.647
36.068001 22.118999 1.64
35.970001 22.214001 1.6390001
35.990002 22.382999 1.642
36.061001 22.584999 1.648
35.603001 22.454 1.632
35.425999 22.497999 1.628
39.895 22.966 -0.99599999
39.681 23.009001 -0.991
39.487999 23.062 -0.98799998
39.286999 23.111 -0.98400003
39.080002 23.155001 -0.98000002
38.889 23.207001 -0.97600001
38.558998 23.257 -0.97000003
39.723999 24.302999 -1.01
39.595001 24.395 -1.008
39.612999 24.577999 -1.011
39.519001 24.691999 -1.01
40.085999 25.134001 -1.029
40.083 25.308001 -1.031
40.105999 25.5 -1.035
40.118999 25.684999 -1.038
40.004002 25.789 -1.036
39.431999 23.195999 0.13600001
39.051998 23.221001 0.13600001
38.882999 23.285999 0.13600001
38.668999 23.323 0.13699999
39.592999 24.393 0.134
39.547001 24.450001 0.134
39.400002 24.531 0.13500001
39.455002 24.738001 0.134
39.284 24.802999 0.134
39.374001 23.438999 0.90499997
39.367001 23.603001 0.90600002
39.347 23.76 0.90700001
39.243 24.035 0.90799999
39.175999 24.163 0.90799999
39.400002 24.558001 0.91399997
37.488998 23.697001 0.88200003
35.888 23.162001 0.85699999
35.768002 23.243999 0.85699999
36.179001 23.591 0.86500001
38.515999 23.250999 -1.53
39.778 24.27 -1.592
39.631001 24.351999 -1.589
39.627998 24.521 -1.592
39.562 24.653 -1.5930001
40.002998 25.278 -1.62
39.799 25.325001 -1.614
40.109001 25.789 -1.6339999
39.898998 25.830999 -1.628
39.835999 22.99 -0.759
39.667 23.059 -0.75700003
39.466 23.108999 -0.75400001
39.265999 23.157 -0.75099999
39.058998 23.201 -0.74699998
38.866001 23.252001 -0.745
38.632999 23.278 -0.741
38.533001 23.299999 -0.73900002
39.811001 24.243 -0.77200001
39.647999 24.315001 -0.76999998
39.598 24.455999 -0.77100003
39.589001 24.622999 -0.77200001
39.523998 24.754 -0.773
39.526001 23.08 0.35100001
38.890999 23.122 0.34900001
39.495998 24.243 0.35299999
39.330002 24.311001 0.35299999
39.445 24.554001 0.35299999
39.216999 24.583 0.35299999
38.619999 22.997 1.232
38.638 23.172001 1.234
38.426998 23.209999 1.2309999
38.402 23.360001 1.232
38.188 23.393999 1.228
38.071999 23.488001 1.227
38.006001 23.530001 1.226
38.958 24.290001 1.2539999
38.125 23.936001 1.234
38.167999 24.131001 1.237
35.314999 22.48 1.1619999
35.283001 22.615999 1.163
34.997002 22.587999 1.1569999
34.867001 22.582001 1.154
35.801998 23.348 1.182
39.796001 22.995001 -0.43900001
39.637001 23.07 -0.43700001
39.444 23.122999 -0.435
39.228001 23.163 -0.433
39.019001 23.205 -0.43099999
38.828999 23.257 -0.42899999
38.651001 23.233 -0.42699999
38.487 23.299 -0.42500001
39.764 24.243999 -0.447
