# .PCD v0.7 - Point Cloud Data file format
VERSION 0.7
FIELDS x y z
SIZE 4 4 4
TYPE F F F
COUNT 1 1 1
WIDTH 114
HEIGHT 1
VIEWPOINT 0 0 0 1 0 0 0
POINTS 114
DATA ascii
1.994 -46.097 0.13500001
2.0639999 -46.043999 0.13500001
2.2079999 -46.026001 0.13500001
1.416 -41.488998 -1.396
1.579 -42.347 -1.4299999
1.658 -42.655998 -1.442
1.8 -42.834 -1.449
1.936 -42.868 -1.45
2.0769999 -42.98 -1.455
2.2130001 -42.991001 -1.455
2.3499999 -43.026001 -1.457
2.4879999 -43.057999 -1.459
2.5569999 -43.091999 -1.46
2.697 -43.157001 -1.4630001
2.8399999 -43.248001 -1.467
2.983 -43.351002 -1.471
3.27 -43.525002 -1.479
3.411 -43.562 -1.48
2.5439999 -49.721001 0.12899999
2.6989999 -49.693001 0.12899999
2.8540001 -49.668999 0.12899999
3.1070001 -51.237999 0.127
3.2709999 -51.279999 0.127
3.589 -54.870998 0.121
3.7590001 -54.832001 0.121
3.9389999 -54.918999 0.121
1.152 -42.507 -0.68699998
1.286 -42.519001 -0.68699998
1.42 -42.513 -0.68699998
1.489 -42.575001 -0.68800002
1.753 -46.056 -0.76099998
1.899 -46.077 -0.76200002
2.0420001 -46.029999 -0.76099998
2.188 -46.066002 -0.76200002
2.3610001 -46.608002 -0.773
2.5510001 -47.424999 -0.79100001
2.6819999 -48.446999 -0.81199998
2.8789999 -49.219002 -0.829
3.1600001 -51.275002 -0.87199998
3.3729999 -52.073002 -0.889
3.6159999 -53.236 -0.91399997
3.8699999 -54.457001 -0.94
4.1430001 -55.834 -0.96899998
3.177 -50.183998 -1.405
3.349 -50.396 -1.4119999
1.37 -42.459999 -0.38999999
3.6830001 -50.612999 -1.42
3.7609999 -50.589001 -1.419
1.3150001 -41.195999 -1.115
1.405 -41.962002 -1.1390001
1.5650001 -42.73 -1.164
1.732 -43.580002 -1.192
1.906 -44.455002 -1.22
2.085 -45.313 -1.248
2.273 -46.241001 -1.277
2.4660001 -47.152 -1.307
2.5880001 -48.043999 -1.336
2.7950001 -49.032001 -1.368
2.9909999 -49.729 -1.39
1.1670001 -42.354 -0.38800001
1.302 -42.436001 -0.38999999
3.5179999 -50.537998 -1.4170001
1.503 -42.452 -0.38999999
1.778 -46.063 -0.44100001
1.923 -46.054001 -0.44100001
2.0650001 -46.000999 -0.44
2.21 -45.988998 -0.44
2.54 -49.580002 -0.49000001
2.6210001 -49.622002 -0.491
2.7750001 -49.582001 -0.491
2.937 -49.687 -0.49200001
3.1889999 -51.195999 -0.51300001
3.586 -54.779999 -0.56400001
3.76 -54.782001 -0.56400001
3.931 -54.757999 -0.56400001
1.152 -42.502998 -0.12899999
1.286 -42.488998 -0.12899999
1.418 -42.451 -0.12899999
1.558 -42.639999 -0.13
1.826 -46.055 -0.15700001
1.97 -46.047001 -0.15700001
2.1140001 -46.015999 -0.15700001
2.1930001 -46.146999 -0.15800001
2.51 -49.584999 -0.186
2.668 -49.615002 -0.186
2.823 -49.588001 -0.186
3.075 -51.200001 -0.198
3.2420001 -51.282001 -0.199
3.635 -54.792 -0.227
3.72 -54.776001 -0.227
3.8989999 -54.866001 -0.228
1.173 -40.428001 -0.85000002
1.268 -41.424999 -0.87599999
1.425 -42.192001 -0.89600003
1.589 -43.028999 -0.91799998
1.7589999 -43.875999 -0.94
1.933 -44.706001 -0.96200001
2.115 -45.59 -0.98500001
2.3069999 -46.554001 -1.011
2.427 -47.448002 -1.034
2.6229999 -48.297001 -1.057
2.826 -49.179001 -1.08
3.1070001 -51.241001 -1.1339999
3.276 -51.355 -1.137
3.5090001 -52.401001 -1.165
3.7590001 -53.603001 -1.197
3.9460001 -55.014 -1.234
4.2140002 -56.27 -1.267
1.036 -42.566002 0.14
1.169 -42.532001 0.141
1.302 -42.507 0.141
1.436 -42.512001 0.141
1.568 -42.473999 0.141
1.849 -46.089001 0.13500001
