# .PCD v0.7 - Point Cloud Data file format
VERSION 0.7
FIELDS x y z
SIZE 4 4 4
TYPE F F F
COUNT 1 1 1
WIDTH 417
HEIGHT 1
VIEWPOINT 0 0 0 1 0 0 0
POINTS 417
DATA ascii
7.4640002 4.7490001 -1.367
7.5560002 5.026 -1.405
7.5240002 5.0219998 -1.4
7.493 5.0359998 -1.397
7.4770002 5.059 -1.397
7.4679999 5.0869999 -1.399
7.73 5.1139998 0.463
7.7189999 5.1420002 0.463
7.6810002 5.152 0.463
7.5570002 5.086 0.45899999
7.5040002 5.085 0.458
7.487 5.1079998 0.458
7.3850002 5.072 0.45500001
7.5650001 5.0780001 -0.20200001
7.5289998 5.0710001 -0.2
7.4990001 5.086 -0.199
7.4829998 5.1090002 -0.199
7.723 5.3070002 -0.213
7.4770002 5.3270001 0.461
7.48 5.3649998 0.46200001
7.4450002 5.3759999 0.461
7.4219999 5.3940001 0.461
7.414 5.4250002 0.461
7.3189998 5.3730001 0.458
7.7719998 4.8169999 -0.58499998
7.6729999 4.789 -0.57599998
7.6110001 4.7670002 -0.57099998
7.5430002 4.756 -0.565
7.4759998 4.7470002 -0.56
7.3940001 4.7270002 -0.55299997
7.355 4.7350001 -0.551
7.1620002 4.6420002 -0.53299999
7.4089999 4.836 -0.55900002
7.223 4.73 -0.54100001
7.5450001 5.0450001 -0.579
7.5040002 5.052 -0.57700002
7.5050001 5.0869999 -0.57800001
7.4710002 5.098 -0.57599998
7.4699998 5.1139998 -0.57700002
7.6690001 4.8629999 0.51599997
7.605 4.8559999 0.514
7.5609999 4.8610001 0.51300001
7.546 4.8850002 0.51300001
7.5139999 4.8979998 0.51200002
7.4970002 4.9200001 0.51200002
7.4850001 4.9460001 0.51200002
7.7249999 5.1230001 0.523
7.7020001 5.1430001 0.52200001
7.684 5.1659999 0.52200001
7.5209999 5.0900002 0.51599997
7.4959998 5.1079998 0.51599997
7.5640001 4.7259998 -0.94199997
7.506 4.7059999 -0.93400002
7.5019999 5.1989999 0.51800001
7.3610001 4.6799998 -0.91600001
7.296 4.671 -0.90899998
7.4330001 5.2550001 0.51700002
7.3909998 5.2600002 0.51599997
7.3850002 5.2909999 0.51599997
7.5289998 5.0040002 -0.95700002
7.4330001 5.3790002 0.51899999
7.474 5.0359998 -0.95300001
7.4580002 5.059 -0.95300001
7.454 5.0910001 -0.95499998
7.381 5.4840002 0.51999998
7.388 5.5609999 0.52200001
7.3839998 5.5770001 0.52200001
7.296 5.5830002 0.51999998
7.802 4.803 -0.75599998
7.6869998 4.7649999 -0.74400002
7.6110001 4.7519999 -0.736
7.5619998 4.7550001 -0.73199999
7.4759998 4.7340002 -0.72299999
7.428 4.7199998 -0.71799999
7.3579998 4.7080002 -0.71200001
7.2909999 4.698 -0.70499998
7.23 4.691 -0.699
7.118 4.651 -0.68699998
7.3049998 4.8049998 -0.71200001
7.507 5.0219998 -0.74299997
7.4850001 5.0409999 -0.74199998
7.4559999 5.0549998 -0.74000001
7.4400001 5.079 -0.74000001
7.4390001 5.112 -0.74199998
7.487 5.1789999 -0.75
7.474 5.1880002 -0.74900001
7.4559999 5.21 -0.74900001
7.6360002 5.3720002 -0.77399999
7.4239998 5.408 0.51999998
7.4640002 4.7160001 -1.364
7.7589998 4.7859998 -0.86699998
7.652 4.7540002 -0.85500002
7.6069999 4.7589998 -0.85100001
7.5190001 4.737 -0.84100002
7.4689999 4.7389998 -0.83600003
7.4060001 4.7309999 -0.829
7.3200002 4.71 -0.81900001
7.283 4.7020001 -0.815
7.3800001 4.7969999 -0.83099997
7.348 4.809 -0.82800001
7.5380001 5.0339999 -0.861
7.4970002 5.0409999 -0.85799998
7.494 5.0560002 -0.85900003
7.4759998 5.079 -0.85799998
7.46 5.1020002 -0.85799998
7.4770002 5.1479998 -0.86299998
7.5440001 5.0799999 -0.147
7.5 5.085 -0.145
7.4850001 5.1090002 -0.145
7.6469998 5.256 -0.154
7.7119999 4.8109999 -0.528
7.6570001 4.7940001 -0.523
7.566 4.77 -0.51599997
7.5250001 4.7779999 -0.514
7.441 4.7579999 -0.50700003
7.263 4.677 -0.49200001
7.4559999 4.8340001 -0.51200002
7.2839999 4.7550001 -0.49700001
7.546 5.0780001 -0.528
7.5219998 5.0960002 -0.528
7.4990001 5.1149998 -0.52700001
7.71 5.276 -0.54799998
7.507 5.2610002 0.461
7.5110002 5.2800002 0.461
7.553 5.0760002 -0.086999997
7.4780002 5.0609999 -0.085000001
7.4590001 5.0819998 -0.085000001
7.5440001 5.1739998 -0.088
7.4980001 5.178 -0.086999997
7.4829998 4.743 -1.096
7.473 4.77 -1.097
7.5609999 5.0469999 -1.13
7.5190001 5.053 -1.125
7.513 5.066 -1.125
7.5159998 5.1030002 -1.1289999
7.494 5.1220002 -1.128
7.5120001 5.1690001 -1.1339999
7.5609999 5.105 -0.033
7.5240002 5.1139998 -0.032000002
7.5190001 5.1279998 -0.033
7.5110002 5.158 -0.033
7.4819999 4.7119999 -1.444
7.4759998 4.7410002 -1.446
7.5479999 5.0229998 -1.484
7.527 5.0440001 -1.483
7.5 5.0599999 -1.48
7.4790001 5.0799999 -1.479
7.4679999 5.1069999 -1.48
7.4850001 5.1529999 -1.487
7.507 5.191 0.45899999
7.5089998 5.2270002 0.46000001
7.5949998 4.7779999 -0.46000001
7.5310001 4.7709999 -0.45500001
7.4400001 4.7459998 -0.449
7.618 4.8940001 -0.46599999
7.2589998 4.678 -0.435
7.3800001 4.789 -0.447
7.6589999 5.1440001 -0.47799999
7.5279999 5.073 -0.46700001
7.5359998 5.1129999 -0.46900001
7.513 5.132 -0.46900001
7.5970001 5.2249999 -0.47799999
7.5500002 5.0910001 0.014
7.5310001 5.112 0.014
7.513 5.1350002 0.014
7.4980001 5.1589999 0.014
7.487 5.2989998 0.461
7.7140002 4.77 -0.69
7.6750002 4.7789998 -0.68800002
7.5710001 4.7309999 -0.67699999
7.5479999 4.7490001 -0.676
7.4689999 4.7319999 -0.66799998
7.3959999 4.7179999 -0.66100001
7.3330002 4.71 -0.65600002
7.2459998 4.6859999 -0.64700001
7.1079998 4.6279998 -0.63300002
7.29 4.7639999 -0.65499997
7.1209998 4.6849999 -0.63700002
7.5190001 5.0170002 -0.68800002
7.4920001 5.033 -0.68599999
7.461 5.046 -0.68400002
7.4419999 5.0669999 -0.68400002
7.447 5.0879998 -0.68599999
7.4559999 5.1279998 -0.68900001
7.4920001 5.1880002 -0.69499999
7.4530001 5.1960001 -0.69199997
7.4369998 5.2189999 -0.69199997
7.4400001 5.256 -0.69400001
7.5240002 5.0640001 0.078000002
7.4679999 5.0939999 0.079000004
7.4050002 5.0679998 0.079999998
7.447 5.131 0.079000004
7.473 4.697 -1.506
7.48 4.7340002 -1.511
7.5209999 4.7930002 -1.524
7.546 5.0279999 -1.551
7.5110002 5.039 -1.5470001
7.493 5.0609999 -1.546
7.4770002 5.0679998 -1.545
7.473 5.099 -1.5470001
7.5089998 5.158 -1.559
7.6950002 4.802 -1.024
7.6220002 4.789 -1.015
7.5209999 4.7589998 -1.001
7.4970002 4.7600002 -0.99900001
7.4239998 4.7459998 -0.98900002
7.309 4.7049999 -0.97299999
7.52 4.875 -1.01
7.2659998 4.7420001 -0.97100002
7.6040001 5.0500002 -1.0319999
7.5669999 5.059 -1.029
7.5359998 5.073 -1.026
7.52 5.0970001 -1.026
7.506 5.1209998 -1.026
7.4260001 5.1009998 -1.016
7.5900002 4.7719998 -0.41499999
7.4990001 4.7480001 -0.40900001
7.46 4.757 -0.40700001
7.3959999 4.7490001 -0.403
7.461 5.0250001 -0.417
7.4489999 5.0510001 -0.417
7.335 5.0079999 -0.40900001
7.5749998 5.2059999 -0.43000001
7.5139999 5.0840001 0.134
7.5089998 5.1149998 0.134
7.5050001 5.1290002 0.134
7.4949999 5.1570001 0.134
7.4530001 5.3559999 0.134
7.4619999 5.3979998 0.133
7.342 5.3460002 0.134
7.6570001 4.75 -0.95300001
7.4819999 5.1329999 0.51599997
7.4710002 5.1589999 0.51599997
7.4990001 4.73 -1.161
7.487 4.756 -1.161
7.5700002 5.0279999 -1.1950001
7.5279999 5.0339999 -1.1900001
7.507 5.0539999 -1.189
7.493 5.079 -1.189
7.4780002 5.1030002 -1.189
7.4510002 5.1020002 -1.186
7.2080002 4.6469998 -0.898
7.3629999 4.7789998 -0.92400002
7.1750002 4.6900001 -0.89700001
7.395 5.3330002 0.51700002
7.5929999 5.1100001 0.192
7.579 5.1350002 0.192
7.5349998 5.1389999 0.192
7.5289998 5.1700001 0.192
7.5250001 5.2020001 0.192
7.527 5.2389998 0.192
7.4990001 5.2540002 0.192
7.52 5.2870002 0.192
7.5149999 5.3179998 0.192
7.5159998 5.355 0.192
7.5380001 5.4060001 0.192
7.5289998 5.4359999 0.192
7.5570002 5.493 0.192
7.6269999 5.5799999 0.192
7.4980001 5.5029998 0.192
7.3779998 5.4099998 0.51800001
7.3720002 5.4419999 0.51899999
7.447 5.1030002 -0.95599997
7.7969999 4.816 -0.926
7.652 4.7589998 -0.90700001
7.5890002 4.7529998 -0.89999998
7.5279999 4.7480001 -0.89300001
7.4499998 4.7309999 -0.884
7.3899999 4.7249999 -0.87800002
7.322 4.698 -0.86900002
7.244 4.6799998 -0.86000001
7.3460002 4.7789998 -0.87699997
7.1900001 4.7090001 -0.85600001
7.552 5.0500002 -0.91600001
7.5310001 5.053 -0.91399997
7.5120001 5.0749998 -0.91399997
7.4840002 5.0900002 -0.912
7.4910002 5.1300001 -0.91500002
7.823 4.8169999 -0.81900001
7.717 4.7849998 -0.80699998
7.6529999 4.7779999 -0.801
7.5910001 4.7719998 -0.79500002
7.4990001 4.7470002 -0.78500003
7.4759998 4.7490001 -0.78299999
7.3930001 4.7290001 -0.77399999
7.3260002 4.7179999 -0.76700002
7.2810001 4.7220001 -0.76300001
7.1090002 4.6409998 -0.74199998
7.204 4.7360001 -0.75599998
7.612 5.0580001 -0.81400001
7.5339999 5.04 -0.80500001
7.539 5.0780001 -0.80800003
7.4970002 5.0830002 -0.80500001
7.4829998 5.1079998 -0.80500001
7.4720001 5.1350002 -0.80599999
7.4829998 5.178 -0.80900002
7.5079999 5.2119999 -0.81400001
7.494 5.2379999 -0.81400001
7.4860001 4.7270002 -1.59
7.4980001 4.7670002 -1.596
7.5830002 5.0430002 -1.6390001
7.52 5.0349998 -1.628
7.4970002 5.0370002 -1.624
7.4850001 5.0619998 -1.625
7.4749999 5.0900002 -1.627
7.487 5.1329999 -1.633
7.4359999 4.6950002 -0.926
7.4959998 5.0409999 0.235
7.4460001 5.0250001 0.235
7.415 5.039 0.235
7.4089999 5.0689998 0.235
7.4099998 5.1030002 0.235
7.4070001 5.1360002 0.235
7.4109998 5.1729999 0.235
7.401 5.1999998 0.235
7.4120002 5.2259998 0.235
7.4120002 5.2610002 0.235
7.4190001 5.3000002 0.236
7.4169998 5.3340001 0.236
7.4109998 5.3649998 0.236
7.5970001 5.5349998 0.236
7.3590002 5.3990002 0.236
7.6129999 5.1139998 -0.36500001
7.5489998 5.105 -0.361
7.4770002 5.0910001 -0.35699999
7.645 5.2410002 -0.37099999
7.5669999 5.0830002 -0.25400001
7.3530002 4.7309999 -1.04
7.539 5.0359998 -1.085
7.5190001 5.0560002 -1.084
7.4970002 5.059 -1.082
7.4980001 5.0180001 -0.95499998
7.5450001 5.0469999 0.29899999
7.5339999 5.0739999 0.29899999
7.5300002 5.105 0.29899999
7.4990001 5.119 0.29899999
7.4990001 5.1539998 0.29899999
7.4959998 5.1859999 0.29899999
7.5040002 5.21 0.30000001
7.5009999 5.2420001 0.30000001
7.4990001 5.276 0.30000001
7.4959998 5.309 0.30000001
7.494 5.3429999 0.30000001
7.5 5.3829999 0.301
7.5019999 5.421 0.301
7.4889998 5.4289999 0.301
7.3470001 5.3610001 0.29899999
7.756 4.783 -0.63700002
7.7290001 4.8000002 -0.63499999
7.6630001 4.7930002 -0.63
7.5960002 4.7839999 -0.62400001
7.5300002 4.776 -0.61900002
7.4710002 4.7550001 -0.61299998
7.395 4.7399998 -0.60600001
7.3379998 4.7360001 -0.602
7.4889998 4.8660002 -0.62
7.4419999 4.869 -0.616
7.5209999 5.0050001 -0.62900001
7.4759998 5.0089998 -0.62599999
7.4749999 5.0419998 -0.62800002
7.4439998 5.0560002 -0.62599999
7.4510002 5.0949998 -0.62900001
7.4450002 5.125 -0.63
7.4770002 5.1810002 -0.63499999
7.447 5.178 -0.63300002
7.4289999 5.1999998 -0.63300002
7.5159998 5.0619998 -0.30899999
7.48 5.072 -0.308
7.375 5.0349998 -0.30199999
7.6269999 5.224 -0.31999999
7.552 5.086 0.34599999
7.4650002 5.0960002 0.345
7.4840002 5.1259999 0.34599999
7.4629998 5.1459999 0.34599999
7.4710002 5.1859999 0.34599999
7.4650002 5.2160001 0.34599999
7.473 5.257 0.347
7.467 5.3239999 0.347
7.4689999 5.342 0.347
7.4710002 5.3800001 0.34799999
7.461 5.408 0.34799999
7.3260002 5.3449998 0.34599999
7.441 5.4650002 0.34799999
7.4720001 4.724 -1.278
7.3899999 4.7049999 -1.266
7.5679998 5.04 -1.319
7.52 5.0419998 -1.312
7.4970002 5.0609999 -1.311
7.4679999 5.0749998 -1.309
7.4770002 5.098 -1.312
7.381 5.0669999 -1.296
7.4640002 5.1589999 -1.3150001
7.5170002 4.7360001 -1.059
7.4850001 4.7490001 -1.057
7.5289998 4.8099999 -1.066
7.5190001 5.0679998 -0.252
7.4590001 5.0609999 -0.249
7.6350002 5.217 -0.26100001
7.4660001 5.1350002 -0.252
7.5029998 5.0970001 -1.086
7.4619999 5.1040001 -1.082
7.3540001 5.0440001 -1.3789999
7.566 5.098 0.41600001
7.5419998 5.1160002 0.41600001
7.5009999 5.1230001 0.41499999
7.4980001 5.1560001 0.41600001
7.4949999 5.1880002 0.41600001
7.493 5.2220001 0.41600001
7.4899998 5.2550001 0.417
7.5029998 5.2820001 0.417
7.5009999 5.316 0.41800001
7.4970002 5.348 0.41800001
7.493 5.381 0.41800001
7.5009999 5.4229999 0.419
7.4899998 5.4510002 0.419
7.6290002 5.5890002 0.42399999
7.48 5.164 -1.408
