# .PCD v0.7 - Point Cloud Data file format
VERSION 0.7
FIELDS x y z
SIZE 4 4 4
TYPE F F F
COUNT 1 1 1
WIDTH 1095
HEIGHT 1
VIEWPOINT 0 0 0 1 0 0 0
POINTS 1095
DATA ascii
14.989 6.322 -0.42300001
14.422 5.7620001 -0.29300001
14.276 6.099 -0.39399999
11.494 3.9760001 -1.3559999
11.833 3.6170001 -0.49700001
14.653 5.9070001 -0.301
12.408 4.5929999 0.02
11.681 3.668 -1.304
14.428 5.8730001 -1.624
12.478 2.868 -0.366
12.524 2.8989999 -0.368
13.415 3.349 -0.41100001
13.049 3.302 -0.39500001
12.762 3.273 -0.382
12.752 3.313 -0.382
12.714 3.346 -0.38100001
12.675 3.378 -0.38
12.643 3.4119999 -0.37900001
12.328 2.8310001 -0.88599998
12.3 2.8659999 -0.88499999
12.279 2.901 -0.884
12.251 2.915 -0.88200003
12.231 2.951 -0.88099998
12.515 3.675 -0.377
12.492 3.711 -0.37599999
12.47 3.747 -0.37599999
12.441 3.7809999 -0.375
12.107 3.1229999 -0.87400001
12.104 3.142 -0.87400001
12.073 3.175 -0.87199998
12.052 3.21 -0.87099999
12.04 3.247 -0.87099999
12.018 3.2820001 -0.87
11.996 3.316 -0.86900002
11.963 3.3469999 -0.86699998
12.222 4.138 -0.37
12.19 4.1700001 -0.36899999
11.643 4.1069999 -0.34599999
11.641 4.1469998 -0.34599999
11.872 3.5039999 -0.86299998
11.957 4.3439999 -0.36199999
11.831 3.572 -0.861
11.821 3.6099999 -0.86199999
11.806 3.6259999 -0.861
11.783 3.6589999 -0.86000001
11.766 3.694 -0.85900003
11.741 3.727 -0.85799998
11.72 3.7609999 -0.85699999
11.712 3.799 -0.85699999
11.7 3.8150001 -0.85699999
11.677 3.848 -0.85600001
11.655 3.882 -0.85500002
11.647 3.9200001 -0.85500002
11.623 3.9519999 -0.85399997
11.607 3.9879999 -0.85399997
11.59 4.0229998 -0.85399997
11.58 4.04 -0.85299999
11.564 4.0749998 -0.85299999
11.549 4.1100001 -0.85299999
11.532 4.145 -0.852
11.542 4.1900001 -0.85399997
11.665 4.276 -0.86699998
11.672 4.3210001 -0.86900002
11.82 4.3969998 -0.88300002
11.996 4.506 -0.90100002
12.125 4.598 -0.91399997
12.263 4.6950002 -0.92799997
12.401 4.7930002 -0.94199997
12.594 4.9130001 -0.96100003
12.786 5.0349998 -0.98000002
12.97 5.131 -0.99800003
13.183 5.2639999 -1.0190001
13.401 5.401 -1.041
13.583 5.5240002 -1.0599999
13.402 5.3850002 -1.2180001
13.115 4.2600002 -0.32800001
14.686 6.1370001 -1.1670001
14.868 6.2410002 -1.1849999
11.816 3.652 -1.1720001
11.619 3.79 -1.301
12.409 2.875 -1.4299999
12.489 2.9349999 -1.442
12.552 2.97 -1.45
12.456 2.9890001 -1.439
12.446 3.0280001 -1.439
12.431 3.066 -1.438
12.512 3.1270001 -1.45
12.094 3.0639999 -1.396
12.017 3.085 -1.388
12.047 3.112 -1.392
12.004 3.142 -1.388
11.958 3.1700001 -1.383
11.913 3.198 -1.378
11.884 3.2309999 -1.376
11.853 3.2620001 -1.373
12.287 2.7219999 -1.113
12.27 2.7590001 -1.112
12.233 2.7909999 -1.109
12.257 2.878 -1.114
12.246 2.9159999 -1.114
12.228 2.9519999 -1.113
12.215 2.9690001 -1.112
12.186 3.003 -1.11
12.165 3.0380001 -1.109
12.142 3.073 -1.107
12.121 3.108 -1.1059999
12.098 3.1429999 -1.104
12.082 3.1789999 -1.104
12.062 3.194 -1.102
12.034 3.227 -1.1
12.014 3.263 -1.099
11.998 3.299 -1.099
11.974 3.3329999 -1.097
11.958 3.369 -1.097
11.942 3.405 -1.096
11.91 3.4360001 -1.094
11.899 3.4530001 -1.0930001
11.882 3.4890001 -1.092
11.862 3.523 -1.091
11.837 3.5569999 -1.09
11.824 3.5929999 -1.09
11.502 4.1609998 -1.365
11.614 4.243 -1.382
11.769 3.678 -1.087
11.755 3.714 -1.087
11.999 4.4889998 -1.439
11.715 3.7820001 -1.085
12.286 4.684 -1.482
11.679 3.852 -1.0829999
11.666 3.868 -1.0829999
11.652 3.904 -1.082
11.636 3.9389999 -1.082
11.57 3.9579999 -1.076
11.712 4.0469999 -1.0930001
11.521 4.0219998 -1.073
11.503 4.0560002 -1.073
11.5 4.0760002 -1.073
11.483 4.1110001 -1.073
11.467 4.145 -1.072
11.485 4.1929998 -1.076
11.593 4.2729998 -1.089
11.679 4.3460002 -1.1
12.463 4.7030001 -1.1900001
12.487 4.757 -1.194
12.478 4.7979999 -1.1950001
12.568 4.8779998 -1.207
12.768 5.0019999 -1.2309999
12.971 5.1279998 -1.256
13.195 5.2639999 -1.283
12.065 3.5710001 0.107
11.542 3.8299999 -1.3559999
13.953 5.6919999 -1.373
14.268 5.8720002 -1.41
14.505 6.0229998 -1.439
14.681 6.1490002 -1.461
14.766 6.2389998 -1.473
11.789 3.7449999 -1.1720001
11.572 3.895 -1.3
11.955 3.7639999 0.107
11.757 3.7750001 -1.17
13.168 4.1859999 -0.329
11.573 3.9159999 -1.301
14.818 4.5289998 -0.012
14.263 6.1350002 -0.48699999
11.931 3.2379999 -1.318
12.276 2.7509999 -1.273
12.248 2.7850001 -1.271
12.514 2.918 -0.29100001
12.348 2.9200001 -0.285
12.628 3.0710001 -0.29699999
12.213 3.0 -1.272
12.758 3.2509999 -0.30399999
12.172 3.0510001 -1.2690001
12.705 3.323 -0.30199999
12.694 3.3629999 -0.30199999
12.643 3.392 -0.301
12.084 3.191 -1.263
12.4 2.766 -0.89099997
12.037 3.26 -1.26
12.038 3.28 -1.261
11.999 3.3099999 -1.257
11.99 3.349 -1.258
12.485 3.688 -0.29800001
12.454 3.721 -0.29699999
12.44 3.76 -0.29699999
12.415 3.7950001 -0.296
12.403 3.8340001 -0.296
12.26 3.8099999 -0.29100001
13.198 4.1500001 -0.329
11.836 3.608 -1.249
13.145 4.224 -0.32800001
11.794 3.677 -1.2460001
13.073 4.2909999 -0.32600001
12.214 4.1139998 -0.29300001
12.193 4.1500001 -0.29300001
11.728 3.7980001 -1.243
11.673 4.0949998 -0.273
11.641 4.125 -0.27200001
11.716 4.1719999 -0.27500001
11.872 4.27 -0.28200001
11.845 4.303 -0.28200001
11.697 4.0120001 -1.248
12.797 4.8569999 -0.324
12.772 4.8930001 -0.32300001
11.486 4.0619998 -1.226
11.477 4.099 -1.227
11.454 4.132 -1.226
13.416 3.823 -0.417
11.536 4.223 -1.238
11.666 4.3119998 -1.256
12.2 4.5949998 -1.326
12.448 4.777 -1.3609999
12.678 4.888 -1.391
12.862 5.0050001 -1.416
13.816 5.474 -1.54
14.487 5.7909999 -1.627
14.446 5.8280001 -1.624
13.471 3.747 -0.41800001
14.4 5.888 -1.6210001
12.202 2.984 -0.87900001
13.419 3.8099999 -0.242
12.181 3.02 -0.87800002
12.162 3.056 -0.87699997
14.198 5.8800001 -1.12
12.138 3.0899999 -0.87599999
13.916 5.711 -1.092
14.791 4.6490002 -0.012
11.565 3.7980001 -1.358
12.41 3.8139999 -0.37400001
11.528 3.8659999 -1.3559999
13.453 3.7880001 -0.41800001
12.362 3.842 -0.37200001
13.202 4.1469998 -0.412
11.68 3.8929999 -1.166
13.207 4.171 -0.412
11.424 4.066 -1.289
13.189 4.211 -0.412
14.75 4.6869998 -0.011
13.147 4.243 -0.41100001
12.932 5.1240001 -1.0779999
13.129 4.283 -0.41100001
12.238 4.1220002 -0.37099999
11.845 3.575 -0.79100001
11.961 3.3670001 -0.86699998
14.72 4.8049998 -0.011
11.937 3.401 -0.866
14.758 4.7399998 -0.012
11.917 3.4360001 -0.86500001
13.421 3.8699999 -0.41800001
11.9 3.471 -0.86500001
11.743 4.2249999 -0.35100001
11.683 3.7090001 -1.306
11.656 3.721 -1.303
11.855 3.539 -0.86299998
12.857 4.9219999 -0.40900001
14.72 4.7789998 -0.011
12.799 3.0250001 -1.575
12.776 3.062 -1.573
11.745 3.4519999 -1.3660001
12.755 3.099 -1.571
12.748 3.119 -1.571
11.991 3.3380001 -0.65399998
12.406 2.9000001 -0.20299999
12.196 2.892 -0.197
12.768 3.2609999 -0.21699999
12.702 3.286 -0.21600001
12.699 3.3280001 -0.21600001
12.688 3.3469999 -0.21600001
12.658 3.381 -0.215
12.572 3.401 -0.212
13.476 3.6889999 -0.243
13.468 3.7320001 -0.243
13.439 3.77 -0.242
12.364 2.776 -0.815
12.353 2.8139999 -0.815
12.309 2.845 -0.81199998
12.291 2.881 -0.81199998
12.261 2.895 -0.81
12.248 2.9319999 -0.80900002
12.219 2.9660001 -0.80800003
12.208 3.0039999 -0.80699998
12.175 3.0369999 -0.80599999
12.16 3.073 -0.80500001
12.121 3.1040001 -0.80299997
12.112 3.122 -0.80199999
12.089 3.1570001 -0.801
12.075 3.194 -0.801
12.046 3.2260001 -0.79900002
12.034 3.2639999 -0.79900002
11.998 3.2950001 -0.79699999
11.988 3.332 -0.79699999
11.95 3.342 -0.79400003
12.131 3.434 -0.81
11.915 3.4130001 -0.79299998
11.878 3.484 -0.792
11.871 3.5220001 -0.792
11.845 3.5550001 -0.79100001
11.871 3.527 -0.64999998
11.809 3.605 -0.78899997
11.798 3.642 -0.78899997
11.771 3.674 -0.78799999
11.761 3.7119999 -0.78799999
11.728 3.7420001 -0.78600001
12.893 3.4790001 -1.602
11.705 3.796 -0.78600001
11.68 3.8280001 -0.78500003
11.664 3.8629999 -0.78500003
12.707 4.9429998 -0.64099997
11.622 3.931 -0.78299999
11.623 3.9719999 -0.78399998
11.599 4.0050001 -0.78299999
11.575 4.0370002 -0.78200001
11.569 4.0549998 -0.78200001
11.564 4.0939999 -0.78299999
11.538 4.1259999 -0.78200001
11.551 4.171 -0.78399998
11.553 4.2129998 -0.78500003
11.62 4.2789998 -0.792
11.748 4.3470001 -0.80400002
11.88 4.4380002 -0.81599998
12.014 4.5300002 -0.829
12.16 4.6290002 -0.84299999
12.329 4.737 -0.85799998
12.504 4.849 -0.875
12.675 4.961 -0.89099997
11.61 4.2360001 -1.318
13.078 5.1890001 -0.92799997
11.776 3.701 -0.64700001
13.537 5.4679999 -0.97000003
11.708 3.5209999 -1.364
13.956 5.7389998 -1.01
13.767 5.5669999 -0.63700002
14.825 6.2309999 -1.089
11.77 3.7190001 -0.64700001
13.125 5.0549998 -0.090000004
13.749 5.5760002 -0.71499997
11.914 3.948 -1.494
11.725 3.786 -0.64600003
14.698 4.848 -0.011
11.715 3.9430001 -1.4680001
14.692 4.9489999 -0.012
11.761 3.9990001 -1.476
11.702 3.54 -1.364
11.645 4.0009999 -1.462
13.651 5.5310001 -1.153
12.132 4.2119999 -1.533
11.728 3.783 -0.787
11.516 4.1420002 -1.158
11.604 4.0300002 -1.163
11.639 3.941 -0.64300001
12.345 4.3730001 -1.567
12.22 4.3499999 -1.55
11.674 3.5710001 -1.362
13.471 3.7290001 -0.33500001
11.601 4.0500002 -0.64300001
13.856 5.665 -1.175
11.728 3.487 -1.3660001
11.581 4.0840001 -0.64300001
11.877 3.539 -1.251
11.568 4.1209998 -0.64300001
11.942 4.421 -1.518
11.945 4.4640002 -1.521
11.657 3.6059999 -1.3609999
11.608 4.2379999 -0.648
14.172 5.8449998 -1.2079999
12.342 4.6799998 -1.581
12.466 2.9219999 -0.12899999
12.593 2.994 -0.133
11.843 3.5699999 -1.248
13.407 3.4579999 -0.156
13.454 3.5150001 -0.15800001
14.454 4.046 -0.18700001
14.429 4.0890002 -0.186
14.27 4.2859998 -0.184
14.257 4.3070002 -0.184
14.228 4.3470001 -0.183
14.205 4.3889999 -0.183
14.203 4.4369998 -0.183
11.744 4.1149998 -0.12
11.724 4.1490002 -0.12
11.965 4.277 -0.127
12.932 4.8790002 -0.156
12.874 4.9029999 -0.154
11.494 3.9349999 -1.355
11.636 3.6400001 -1.36
14.385 5.717 -0.199
14.638 5.8709998 -0.207
14.404 5.8299999 -0.2
11.575 4.1020002 -1.1619999
14.371 5.98 -1.23
11.639 4.3109999 -1.177
11.725 4.3200002 -1.335
14.743 6.1890001 -1.2690001
11.65 3.8989999 -0.78399998
11.802 3.638 -1.2460001
14.709 4.9039998 -0.012
11.602 3.7090001 -1.359
14.431 5.993 -0.87300003
12.11 4.395 0.025
11.59 3.7460001 -1.359
14.774 6.2859998 -0.41499999
13.39 5.1750002 0.0040000002
12.256 4.4920001 0.023
11.575 3.7609999 -1.357
12.431 2.8 -0.73699999
12.395 2.8329999 -0.73500001
12.37 2.868 -0.73400003
12.345 2.882 -0.73299998
12.326 2.9189999 -0.73199999
12.301 2.954 -0.73100001
12.272 2.9879999 -0.72899997
12.261 3.026 -0.72899997
12.234 3.0599999 -0.72799999
12.213 3.095 -0.727
12.19 3.1099999 -0.72500002
12.165 3.1440001 -0.72399998
12.146 3.1800001 -0.72399998
12.126 3.2149999 -0.72299999
12.11 3.2520001 -0.722
12.08 3.2850001 -0.72100002
12.066 3.3010001 -0.72000003
12.046 3.336 -0.71899998
12.027 3.372 -0.71899998
12.001 3.405 -0.71799999
11.983 3.441 -0.71700001
11.965 3.4760001 -0.71700001
11.948 3.5120001 -0.71600002
11.931 3.527 -0.71499997
11.91 3.562 -0.71399999
12.451 2.9300001 -0.063000001
12.619 3.0109999 -0.067000002
12.393 2.9990001 -0.061999999
11.83 3.7 -0.71200001
11.811 3.7349999 -0.71100003
11.797 3.7509999 -0.71100003
11.782 3.7869999 -0.70999998
11.762 3.822 -0.70999998
11.743 3.8559999 -0.70899999
11.727 3.892 -0.70899999
11.707 3.9260001 -0.708
11.734 4.1459999 -0.056000002
11.677 3.977 -0.70700002
11.811 4.2350001 -0.057999998
11.637 4.0450001 -0.70599997
11.624 4.0819998 -0.70599997
11.613 4.119 -0.70599997
11.598 4.1550002 -0.70599997
11.604 4.198 -0.708
11.773 4.2810001 -0.722
11.707 4.2979999 -0.71700001
11.837 4.3889999 -0.72899997
11.977 4.4829998 -0.741
12.117 4.5799999 -0.75300002
12.272 4.6830001 -0.76599997
12.434 4.79 -0.77999997
12.594 4.8969998 -0.79400003
12.809 5.0050001 -0.81199998
12.986 5.1209998 -0.82700002
13.194 5.2519999 -0.84500003
13.401 5.3829999 -0.86299998
13.635 5.5279999 -0.88300002
13.865 5.6719999 -0.90200001
14.144 5.8130002 -0.92500001
14.455 5.9949999 -0.95200002
14.754 6.1739998 -0.977
14.307 5.6630001 -0.118
11.889 3.596 -0.71399999
11.867 3.6300001 -0.713
11.846 3.664 -0.71200001
13.369 3.434 -0.083999999
13.368 3.4779999 -0.085000001
12.968 4.9169998 0.011
11.512 3.901 -1.355
14.426 4.0679998 -0.109
13.75 5.5190001 -0.36700001
14.402 4.1100001 -0.109
14.395 4.132 -0.109
12.432 2.8010001 -1.051
12.427 2.9549999 0.027000001
12.522 3.02 0.025
12.365 3.0220001 0.027000001
12.245 2.921 -1.036
12.227 2.937 -1.035
12.21 2.973 -1.034
12.171 3.0039999 -1.031
12.146 3.039 -1.03
12.131 3.075 -1.029
12.11 3.1110001 -1.028
12.095 3.1270001 -1.027
12.081 3.164 -1.026
12.056 3.198 -1.025
11.988 3.22 -1.0190001
11.617 3.829 -1.302
11.985 3.3 -1.021
11.687 3.96 -0.708
11.9 3.3369999 -1.0140001
13.39 3.8469999 -0.242
11.87 3.4089999 -1.013
11.853 3.4449999 -1.012
11.869 3.49 -1.015
12.011 4.2639999 -0.061999999
11.822 3.5569999 -1.012
11.805 3.572 -1.011
11.742 4.0739999 0.030999999
11.74 4.0939999 0.030999999
11.742 4.1360002 0.030999999
11.661 4.013 -0.70700002
11.968 4.3010001 0.027000001
12.49 3.697 -0.213
11.684 3.8180001 -1.007
11.678 3.836 -1.007
12.596 4.6849999 0.017000001
11.64 3.905 -1.006
11.617 3.937 -1.0039999
12.452 3.7279999 -0.212
11.554 3.997 -1.001
11.573 4.0450001 -1.0039999
11.573 4.0650001 -1.0039999
11.543 4.0949998 -1.003
11.521 4.1279998 -1.002
12.444 3.7679999 -0.212
11.549 4.2199998 -1.007
11.604 4.2820001 -1.015
11.734 4.3509998 -1.029
11.888 4.4510002 -1.0470001
12.43 4.6999998 -1.105
12.403 3.7980001 -0.211
12.348 4.7579999 -1.1
12.546 4.8800001 -1.122
12.751 5.007 -1.145
12.971 5.1170001 -1.169
13.19 5.2509999 -1.194
12.384 3.835 -0.211
13.667 5.5419998 -1.248
14.191 5.8600001 -1.308
14.646 6.1030002 -1.358
14.304 5.7399998 -0.118
13.855 5.5780001 -0.461
12.559 3.911 -0.21699999
13.194 4.152 -0.23800001
13.159 4.1869998 -0.23800001
13.144 4.2280002 -0.23800001
11.844 3.3 -1.373
13.417 3.536 -0.086000003
13.12 4.2649999 -0.237
11.834 3.3369999 -1.373
13.137 4.316 -0.23800001
11.79 3.345 -1.368
12.074 4.033 -0.20299999
11.793 3.3859999 -1.37
14.546 6.0279999 -1.546
12.217 4.1230001 -0.208
13.077 5.0760002 -0.41999999
11.767 3.418 -1.368
12.178 4.152 -0.207
12.425 3.0480001 0.105
12.391 3.0810001 0.105
12.354 3.1129999 0.106
12.338 3.151 0.106
12.325 3.168 0.106
12.292 3.201 0.106
12.272 3.237 0.106
12.246 3.2709999 0.106
12.232 3.309 0.106
12.21 3.3440001 0.106
12.186 3.3789999 0.106
12.167 3.3940001 0.106
12.157 3.4319999 0.106
12.13 3.4660001 0.107
12.119 3.5039999 0.107
12.087 3.536 0.107
11.713 4.1799998 -0.19400001
12.046 3.6059999 0.107
12.032 3.6229999 0.107
12.015 3.6589999 0.107
11.996 3.694 0.107
11.98 3.7309999 0.107
11.596 4.1799998 -0.19
11.938 3.8 0.107
11.92 3.836 0.107
11.908 3.852 0.107
11.883 3.8859999 0.107
11.872 3.9230001 0.107
11.852 3.9579999 0.107
11.827 3.9909999 0.108
11.812 4.027 0.108
11.794 4.0630002 0.108
11.788 4.1020002 0.108
11.688 4.0879998 0.108
11.911 4.2069998 0.106
12.063 4.3039999 0.105
12.223 4.4039998 0.104
12.376 4.5019999 0.102
12.552 4.6110001 0.101
12.749 4.7049999 0.098999999
13.003 4.8449998 0.097000003
13.3 5.0029998 0.093999997
11.621 3.675 -1.36
12.366 2.8010001 -0.67000002
12.344 2.816 -0.66900003
12.313 2.8499999 -0.667
12.283 2.8840001 -0.66600001
12.262 2.9200001 -0.66500002
12.241 2.9560001 -0.66399997
12.22 2.9909999 -0.66299999
12.197 3.026 -0.66299999
12.173 3.0409999 -0.66100001
12.16 3.0780001 -0.66100001
12.134 3.112 -0.66000003
12.125 3.1500001 -0.66000003
12.095 3.1830001 -0.65799999
12.068 3.217 -0.65700001
12.042 3.25 -0.65600002
12.032 3.2880001 -0.65600002
12.013 3.303 -0.65499997
12.825 3.1800001 -1.5829999
11.973 3.3729999 -0.65399998
11.947 3.4070001 -0.653
11.925 3.441 -0.65200001
11.904 3.4760001 -0.65100002
11.888 3.5109999 -0.65100002
12.917 3.4419999 -1.604
11.858 3.563 -0.64999998
12.913 3.527 -1.6059999
12.193 3.4949999 -1.512
12.176 3.5109999 -1.51
12.171 3.55 -1.511
12.205 3.602 -1.517
11.745 3.7520001 -0.64600003
11.795 3.9489999 -1.478
11.702 3.8199999 -0.64499998
11.694 3.858 -0.64499998
11.672 3.891 -0.64399999
11.654 3.9260001 -0.64399999
12.375 4.3400002 -1.5700001
11.617 3.974 -0.64300001
11.606 4.0110002 -0.64300001
12.005 4.316 -1.521
11.992 4.3540001 -1.521
11.97 4.3889999 -1.52
11.54 4.152 -0.64200002
11.567 4.1820002 -0.64399999
12.092 4.5630002 -1.544
11.703 4.3140001 -0.65600002
11.825 4.401 -0.66600001
11.971 4.4980001 -0.67799997
12.114 4.5949998 -0.68900001
12.269 4.697 -0.70200002
12.441 4.7849998 -0.71499997
12.61 4.895 -0.72899997
12.782 5.0079999 -0.74199998
12.969 5.1279998 -0.75700003
13.168 5.2540002 -0.773
13.372 5.3829999 -0.79000002
13.575 5.5139999 -0.80599999
13.888 5.6659999 -0.82999998
14.134 5.8179998 -0.85000002
11.469 3.987 -1.354
14.738 6.1739998 -0.89700001
12.301 4.6659999 -1.416
11.455 4.0229998 -1.354
14.374 5.8379998 -0.486
11.483 4.073 -1.359
11.448 4.1009998 -1.3559999
11.736 4.105 -0.056000002
11.801 3.6270001 -1.0880001
11.78 3.661 -1.087
11.729 4.3260002 -1.4
14.662 6.1300001 -1.563
14.498 5.915 -0.493
11.875 4.401 -1.421
11.732 3.747 -1.085
12.23 4.619 -1.473
11.693 3.816 -1.084
14.483 5.9619999 -0.493
11.698 3.839 -0.493
14.428 5.9920001 -0.491
12.865 5.0580001 -0.90799999
11.692 3.8770001 -0.49399999
13.121 5.1409998 -0.42300001
13.337 5.3400002 -0.95099998
13.688 5.461 -0.45199999
13.442 3.767 -0.33399999
14.41 6.0040002 -1.051
12.531 4.7150002 -0.075999998
11.825 3.517 -1.012
12.322 2.7490001 -1.351
12.305 2.786 -1.35
12.256 2.7950001 -1.344
12.23 2.8299999 -1.342
12.209 2.865 -1.34
12.202 2.904 -1.341
12.149 2.9319999 -1.335
12.122 2.9649999 -1.3329999
12.132 3.0079999 -1.335
12.108 3.023 -1.3329999
12.365 2.7609999 -1.205
12.324 2.7920001 -1.202
12.043 3.1270001 -1.3279999
12.274 2.944 -1.2
12.275 2.984 -1.201
12.23 3.0139999 -1.197
12.233 3.0350001 -1.198
12.189 3.0650001 -1.194
11.899 3.3099999 -1.317
12.139 3.1340001 -1.191
12.131 3.1719999 -1.191
12.098 3.204 -1.188
12.103 3.2460001 -1.1900001
12.063 3.256 -1.186
12.061 3.296 -1.187
12.01 3.323 -1.182
12.007 3.362 -1.183
11.978 3.395 -1.181
11.973 3.434 -1.182
11.938 3.444 -1.178
11.947 3.4879999 -1.181
11.896 3.513 -1.176
11.652 3.76 -1.304
11.862 3.5840001 -1.175
11.854 3.6229999 -1.175
11.588 3.8599999 -1.3
11.831 3.677 -1.174
11.786 3.7030001 -1.17
11.555 3.95 -1.3
11.539 3.9849999 -1.299
11.524 4.0209999 -1.299
11.712 3.842 -1.1670001
11.711 3.8829999 -1.169
11.492 4.131 -1.3
11.681 3.934 -1.1670001
11.652 3.9649999 -1.165
11.638 4.0009999 -1.165
11.907 4.4299998 -1.36
12.086 4.54 -1.386
11.776 4.1939998 -1.187
12.761 4.8870001 -1.478
11.5 4.177 -1.1569999
11.555 4.2379999 -1.165
12.358 2.7980001 -0.88800001
11.787 4.408 -1.196
12.665 4.8520002 -1.304
12.635 4.8860002 -1.303
12.832 5.0100002 -1.3279999
13.051 5.1430001 -1.3559999
13.271 5.2779999 -1.3839999
13.546 5.4369998 -1.419
13.758 5.5739999 -1.447
14.107 5.7410002 -1.489
14.417 5.921 -1.529
13.428 3.881 -0.243
14.321 6.1069999 -0.48899999
14.808 6.2459998 -1.5829999
12.159 4.1230001 -0.44100001
14.997 4.5089998 -0.123
13.725 5.5939999 -0.98799998
14.302 5.7129998 -0.118
11.754 3.5969999 -1.007
11.773 3.684 -1.011
13.163 5.039 0.0080000004
12.421 2.799 -0.58499998
12.371 2.8280001 -0.58200002
12.354 2.865 -0.58200002
12.318 2.898 -0.57999998
12.305 2.9360001 -0.57999998
12.284 2.971 -0.579
12.268 2.9879999 -0.57800001
12.233 3.02 -0.57700002
12.224 3.0580001 -0.57700002
12.179 3.0880001 -0.57499999
12.177 3.128 -0.57499999
12.144 3.1600001 -0.574
12.126 3.1960001 -0.57300001
12.116 3.214 -0.57300001
12.08 3.2449999 -0.57099998
12.08 3.286 -0.57200003
12.044 3.3169999 -0.56999999
12.034 3.355 -0.56999999
12.017 3.391 -0.56999999
11.986 3.4219999 -0.56800002
11.971 3.438 -0.56800002
11.941 3.47 -0.56699997
11.932 3.5079999 -0.56699997
11.903 3.5409999 -0.56599998
11.898 3.5799999 -0.56599998
11.867 3.6110001 -0.565
11.864 3.651 -0.565
11.826 3.6800001 -0.56400001
11.822 3.6989999 -0.56400001
11.789 3.73 -0.56199998
11.783 3.7679999 -0.56300002
11.771 3.8050001 -0.56300002
11.746 3.8380001 -0.56199998
11.726 3.872 -0.56099999
11.702 3.905 -0.56099999
11.706 3.927 -0.56099999
11.68 3.9590001 -0.56
11.651 3.99 -0.55900002
11.646 4.0289998 -0.56
11.625 4.0630002 -0.55900002
11.618 4.1020002 -0.56
11.599 4.1149998 -0.55900002
11.597 4.1560001 -0.55900002
11.612 4.2020001 -0.56099999
11.655 4.2589998 -0.565
11.778 4.3470001 -0.574
11.912 4.4390001 -0.58399999
12.049 4.5339999 -0.59399998
12.216 4.619 -0.60500002
12.371 4.7220001 -0.616
12.553 4.8369999 -0.63
12.955 3.3429999 -1.605
12.879 5.0570002 -0.653
13.078 5.1830001 -0.66799998
13.286 5.3140001 -0.68300003
13.505 5.427 -0.69800001
12.562 4.7270002 -0.22499999
13.991 5.7259998 -0.73299998
14.279 5.8969998 -0.75300002
14.572 6.072 -0.77399999
14.902 6.2649999 -0.79699999
11.936 4.369 -1.601
11.733 3.711 -1.008
13.432 3.4419999 -0.15700001
11.748 3.813 -1.17
11.72 3.8050001 -0.49399999
11.728 3.7509999 -1.0089999
12.316 2.816 -1.041
12.319 2.8570001 -1.0420001
12.271 2.8870001 -1.038
11.717 3.7880001 -1.0089999
13.25 3.4849999 0.014
13.38 3.5639999 0.011
13.479 3.6359999 0.0099999998
13.633 3.724 0.0070000002
13.755 3.8039999 0.0060000001
13.883 3.8870001 0.003
14.037 3.954 0.001
12.083 3.4820001 0.028999999
12.059 3.516 0.028999999
12.05 3.5539999 0.028999999
14.437 5.9559999 -1.628
14.639 4.4239998 -0.0089999996
13.999 5.711 -0.65200001
11.928 3.244 -1.0140001
12.97 3.3900001 -1.609
14.811 4.553 -0.012
13.513 3.7130001 -0.41999999
11.909 3.319 -1.0140001
11.874 3.497 -0.93699998
11.658 3.8699999 -1.006
11.837 3.598 -0.64899999
11.89 3.3740001 -1.0140001
12.391 2.7349999 -0.96499997
12.301 2.7349999 -0.95700002
12.261 2.767 -0.954
12.235 2.8010001 -0.95300001
12.205 2.835 -0.95099998
12.388 2.918 -0.96899998
12.216 2.918 -0.95300001
12.178 2.95 -0.95099998
12.179 2.97 -0.95099998
12.156 3.0050001 -0.94999999
12.125 3.0380001 -0.94800001
12.104 3.073 -0.94700003
12.096 3.112 -0.94700003
12.063 3.1440001 -0.94499999
12.051 3.181 -0.94499999
12.053 3.2219999 -0.94599998
12.029 3.2360001 -0.94400001
12.003 3.27 -0.94199997
11.985 3.3050001 -0.94199997
11.969 3.3410001 -0.94099998
11.952 3.3770001 -0.94099998
11.928 3.411 -0.93900001
11.923 3.4300001 -0.93900001
11.889 3.46 -0.93699998
11.818 3.632 -0.64899999
11.86 3.533 -0.93599999
11.837 3.5669999 -0.935
11.809 3.599 -0.93400002
11.769 3.6270001 -0.93099999
11.778 3.6500001 -0.93199998
11.94 3.22 -1.319
11.707 3.7090001 -0.92799997
11.698 3.7460001 -0.92799997
11.684 3.783 -0.92799997
11.663 3.816 -0.92699999
12.087 3.0580001 -1.331
11.637 3.869 -0.926
11.627 3.9059999 -0.926
11.597 3.937 -0.92500001
11.602 3.9790001 -0.926
11.572 4.0089998 -0.92500001
12.066 3.0929999 -1.33
11.477 4.0580001 -0.91799998
11.729 3.6289999 -1.006
11.464 4.1139998 -0.91799998
11.415 4.1370001 -0.91500002
11.468 4.1960001 -0.921
12.314 2.9119999 -1.204
11.738 4.3779998 -0.95099998
11.899 4.4809999 -0.96799999
12.045 4.5570002 -0.98299998
12.174 4.6490002 -0.99699998
12.37 4.7680001 -1.018
11.992 3.154 -1.323
11.795 3.6659999 -0.648
11.831 4.2090001 0.029999999
13.132 5.2509999 -1.099
13.383 5.375 -1.125
12.398 2.7880001 -0.51599997
12.34 2.816 -0.51300001
12.31 2.849 -0.51200002
12.291 2.8859999 -0.51099998
12.285 2.905 -0.51099998
12.256 2.9389999 -0.50999999
12.233 2.974 -0.509
12.197 3.006 -0.50700003
12.183 3.043 -0.50700003
12.166 3.079 -0.50700003
12.143 3.1140001 -0.50599998
12.132 3.132 -0.50599998
12.108 3.1659999 -0.505
12.079 3.1989999 -0.50400001
12.059 3.2349999 -0.50300002
12.032 3.2679999 -0.50199997
12.029 3.3080001 -0.50300002
12.003 3.3410001 -0.50199997
12.025 3.388 -0.50400001
11.946 3.427 -0.5
11.924 3.461 -0.49900001
11.905 3.4960001 -0.49900001
11.89 3.5320001 -0.498
11.862 3.5639999 -0.49700001
11.85 3.5810001 -0.49700001
12.177 3.1029999 -1.194
11.816 3.652 -0.49599999
11.78 3.6819999 -0.495
11.774 3.72 -0.495
11.762 3.757 -0.495
11.735 3.789 -0.49399999
11.881 3.345 -1.316
11.923 3.276 -1.319
12.77 4.796 0.014
11.674 3.9119999 -0.493
11.643 3.9419999 -0.49200001
11.638 3.9809999 -0.493
11.61 4.013 -0.49200001
11.609 4.033 -0.49200001
11.589 4.0669999 -0.49200001
11.569 4.0999999 -0.491
11.584 4.1469998 -0.493
11.586 4.1890001 -0.49399999
11.678 4.263 -0.5
11.805 4.3509998 -0.50800002
11.946 4.4239998 -0.51700002
12.089 4.52 -0.52700001
12.238 4.619 -0.537
12.39 4.7210002 -0.54699999
11.809 3.4449999 -1.311
12.727 4.9400001 -0.56900001
12.905 5.0549998 -0.58099997
13.099 5.1550002 -0.59299999
13.328 5.2930002 -0.60799998
13.534 5.4229999 -0.62099999
11.79 3.46 -1.309
12.569 4.8340001 -0.55800003
13.614 5.3109999 0.001
11.608 3.9749999 -1.005
11.792 3.5009999 -1.311
13.831 5.4460001 -0.003
11.747 3.527 -1.307
14.049 5.5580001 -0.0060000001
11.725 3.674 -0.92799997
11.745 3.5669999 -1.308
11.719 3.599 -1.306
11.519 4.1680002 -1.003
11.708 3.6359999 -1.306
12.522 2.878 -0.29100001
12.289 2.8959999 -1.278
11.647 3.852 -0.92699999
12.257 2.9300001 -1.275
12.251 2.9690001 -1.276
13.384 3.368 -0.32800001
12.424 4.743 -1.1059999
11.672 4.1040001 -0.192
12.194 3.036 -1.271
11.863 3.3800001 -1.3150001
12.744 3.2909999 -0.303
12.152 3.0869999 -1.268
11.496 4.0229998 -0.91799998
12.127 3.1210001 -1.266
12.121 3.1600001 -1.267
11.475 4.0770001 -0.91799998
11.656 4.119 -0.191
12.533 3.3829999 -0.296
13.44 5.3850002 -1.311
11.842 3.415 -1.314
14.002 5.6789999 -0.55500001
12.076 3.23 -1.2640001
11.495 4.0510001 -1.2970001
13.416 3.8050001 -0.33399999
13.435 3.8789999 -0.33500001
11.636 4.2989998 -0.93900001
13.034 3.276 -1.613
13.398 3.845 -0.333
14.741 6.1700001 -1.369
11.515 4.1599998 -1.304
13.698 5.5380001 -1.342
11.962 3.381 -1.255
11.954 3.4189999 -1.256
11.918 3.45 -1.253
13.039 3.3210001 -1.615
11.911 3.4879999 -1.253
12.544 4.8800001 -1.036
11.884 3.5009999 -1.251
12.733 4.9990001 -1.056
12.442 2.845 -0.43700001
12.465 2.8710001 -0.43900001
12.757 3.151 -0.456
12.722 3.184 -0.45500001
12.709 3.2019999 -0.45500001
12.705 3.244 -0.45500001
12.689 3.2820001 -0.45500001
12.669 3.319 -0.454
12.628 3.3510001 -0.45300001
12.609 3.388 -0.45199999
12.589 3.425 -0.45199999
12.559 3.438 -0.44999999
12.546 3.477 -0.44999999
12.527 3.5139999 -0.44999999
12.491 3.5469999 -0.449
12.459 3.5799999 -0.44800001
12.457 3.622 -0.44800001
11.906 3.5209999 -0.41999999
11.893 3.5580001 -0.41999999
11.895 3.599 -0.421
12.044 3.6860001 -0.42899999
12.143 3.7579999 -0.435
12.112 3.7909999 -0.43399999
12.165 3.849 -0.43700001
12.078 3.8640001 -0.433
12.139 3.904 -0.43700001
12.052 3.918 -0.433
12.152 3.993 -0.43900001
12.008 3.987 -0.43200001
12.166 4.0819998 -0.44100001
11.777 3.7119999 -1.2460001
12.103 4.125 -0.43900001
11.599 4.0739999 -0.414
11.584 4.1100001 -0.414
11.575 4.1479998 -0.414
11.795 4.2690001 -0.426
11.698 4.2540002 -0.42199999
12.498 4.7709999 -0.46799999
12.614 4.8610001 -0.47499999
12.938 5.0570002 -0.49399999
13.22 5.2160001 -0.50999999
13.914 5.5929999 -0.55000001
11.74 3.7609999 -1.243
14.247 5.8309999 -0.56999999
14.501 5.9619999 -0.58399999
11.973 4.3189998 -1.604
11.966 4.3369999 -1.604
12.173 4.1849999 -0.292
11.954 4.4180002 -1.6059999
11.91 4.4439998 -1.601
12.61 4.7909999 -0.227
11.701 3.8299999 -1.242
11.687 3.8659999 -1.2410001
11.671 3.902 -1.2410001
11.657 3.938 -1.2410001
12.942 3.4260001 -1.6059999
11.649 3.9549999 -1.24
14.279 5.8769999 -0.67000002
13.074 5.0599999 -0.244
12.129 4.493 -0.29499999
11.543 4.0009999 -1.23
13.106 5.04 -0.161
11.489 4.0229998 -1.225
13.17 5.112 -0.164
12.998 5.0739999 -0.33399999
13.543 5.3369999 -0.35699999
14.57 6.0500002 -0.68900001
13.712 5.4549999 -0.26800001
13.627 5.4200001 -0.361
11.458 4.1739998 -1.228
14.719 5.9910002 -0.40900001
11.979 3.191 -1.323
14.41 5.9699998 -0.39700001
11.902 3.556 -1.178
11.765 3.7290001 -1.245
14.785 4.5960002 -0.011
14.852 6.2090001 -0.417
