# .PCD v0.7 - Point Cloud Data file format
VERSION 0.7
FIELDS x y z
SIZE 4 4 4
TYPE F F F
COUNT 1 1 1
WIDTH 1289
HEIGHT 1
VIEWPOINT 0 0 0 1 0 0 0
POINTS 1289
DATA ascii
16.007 15.151 0.70999998
15.464 14.729 0.69499999
15.393 14.754 0.69400001
15.324 14.78 0.69300002
15.272 14.823 0.69300002
15.295 14.939 0.69499999
15.214 14.954 0.69400001
15.259 15.045 0.69599998
15.312 15.193 0.69999999
15.781 15.759 0.71600002
14.292 23.223 -1.166
15.491 15.664 0.70999998
14.347 23.643999 -1.1849999
14.378 22.174 -1.123
20.371 21.069 0.87599999
20.261999 21.087999 0.87400001
19.296 20.208 0.84500003
19.305 20.344999 0.847
19.01 20.16 0.83899999
14.288 22.187 -1.122
18.915001 20.313999 0.83999997
15.828 11.192 -1.581
18.712999 20.676001 0.84299999
14.152 22.128 -1.115
18.598 20.809 0.84399998
15.819 11.26 -1.584
18.781 21.216 0.85399997
18.707001 21.266001 0.85299999
18.657 21.344 0.85399997
14.158 22.292 -1.122
18.584999 21.533001 0.85600001
15.807 11.327 -1.586
18.312 21.42 0.85000002
18.061001 21.261 0.84399998
18.309999 21.691999 0.85500002
14.193 22.424999 -1.1289999
18.0 21.737 0.85100001
17.561001 21.341999 0.838
17.466 21.294001 0.83600003
17.5 21.473 0.83899999
14.2 22.593 -1.136
17.219 21.402 0.83399999
17.218 21.539 0.83600003
17.91 22.552 0.86400002
14.228 22.796 -1.146
20.481001 21.040001 0.50400001
14.267 23.02 -1.156
17.974001 22.787001 -1.2539999
20.587 21.283001 0.50599998
19.511999 20.297001 0.49200001
14.317 23.427999 -1.175
20.459 21.417 0.50700003
19.926001 20.841999 0.162
19.047001 20.063 0.48699999
20.51 21.079 0.87800002
19.09 20.172001 0.48800001
20.157 20.924 1.007
18.917 20.115 0.486
18.872999 20.195 0.48699999
19.537001 21.038 0.49700001
18.566 21.226 -0.69800001
17.908001 13.769 -0.801
17.973 13.908 -0.80699998
19.290001 20.903999 0.495
18.400999 21.469 0.986
16.532 14.681 -0.77999997
16.445999 14.697 -0.77700001
16.358 14.712 -0.77499998
16.309999 14.715 -0.773
16.275 14.776 -0.77399999
17.921 14.221 0.83700001
16.257 14.947 -0.77899998
16.275999 15.059 -0.78299999
16.261 15.14 -0.78500003
20.451 19.826 -1.063
19.921 19.992001 -1.052
19.931 20.128 -1.056
19.856001 20.179001 -1.056
20.855 21.663 -1.1339999
20.830999 21.775 -1.137
20.951 22.038 -1.149
19.32 21.405001 0.49900001
20.839001 22.408001 -1.1569999
20.816 22.955 -1.175
16.115 13.944 0.79400003
15.813 13.77 0.78500003
15.748 13.8 0.78399998
15.623 13.778 0.78100002
16.291 14.456 0.80699998
15.839 11.25 -1.469
16.417 14.753 0.815
15.924 14.357 0.79799998
15.649 14.199 0.78899997
16.028999 14.634 0.80500001
16.243 14.924 0.815
16.198999 14.977 0.815
15.848 14.839 0.80500001
15.798 14.839 0.80400002
15.881 15.01 0.80900002
15.699 11.833 -1.489
15.72 15.046 0.80699998
15.246 14.686 0.79000002
15.246 14.778 0.792
15.305 14.929 0.796
15.343 15.013 0.79799998
15.583 15.343 0.81
15.747 12.382 -1.521
15.331 15.287 0.80400002
15.641 12.458 -1.518
15.588 12.496 -1.516
15.547 12.544 -1.516
15.577 12.649 -1.524
15.574 12.687 -1.526
15.565 12.762 -1.529
15.563 12.842 -1.534
15.529 12.896 -1.534
15.523 12.974 -1.538
15.527 13.06 -1.543
15.481 13.105 -1.543
15.469 13.137 -1.544
15.41 13.17 -1.5420001
15.429 13.27 -1.548
15.383 13.315 -1.548
15.363 13.383 -1.551
15.3 13.413 -1.548
15.267 13.469 -1.549
15.25 13.497 -1.55
15.297 13.624 -1.5599999
15.242 13.661 -1.559
15.264 13.768 -1.566
15.203 13.8 -1.564
15.192 13.877 -1.568
15.176 13.95 -1.571
15.21 14.026 -1.5779999
15.167 14.075 -1.5779999
15.098 14.099 -1.575
15.096 14.186 -1.58
15.019 14.203 -1.576
15.008 14.282 -1.58
14.964 14.33 -1.58
14.948 14.359 -1.581
14.948 14.451 -1.586
14.941 14.535 -1.591
14.907 14.593 -1.592
14.891 14.669 -1.596
14.869 14.74 -1.599
14.874 14.839 -1.605
14.882 14.893 -1.609
14.862 14.967 -1.612
14.848 15.047 -1.6160001
14.827 15.121 -1.62
14.81 15.199 -1.623
14.79 15.274 -1.627
14.774 15.354 -1.631
14.754 15.43 -1.6339999
14.759 15.484 -1.638
18.503 21.575001 0.85600001
18.080999 21.615999 0.49200001
16.24 23.802 -1.243
17.983999 13.899 0.97799999
17.919001 13.938 0.977
17.771 13.913 0.972
18.205999 21.705999 0.85399997
15.951 13.659 0.91900003
16.101 13.831 0.92699999
16.197001 14.002 0.93300003
16.216 14.108 0.93599999
15.884 13.907 0.92299998
15.986 14.085 0.93000001
15.839 14.044 0.92500001
15.829 14.124 0.926
16.000999 14.324 0.935
16.229 14.621 0.94800001
15.886 14.401 0.93400002
15.643 14.271 0.92500001
16.150999 14.829 0.95099998
16.211 14.978 0.95499998
15.31 14.233 0.91600001
15.269 14.24 0.91500002
15.323 14.381 0.92000002
15.284 14.434 0.92000002
15.241 14.485 0.92000002
15.272 14.606 0.92400002
15.387 14.809 0.93099999
15.642 15.15 0.94499999
15.359 14.922 0.93300003
15.519 15.173 0.94300002
15.478 15.229 0.94300002
15.426 15.273 0.94300002
15.494 15.438 0.949
20.389 21.042 1.2
20.298 21.08 1.199
20.243 21.155001 1.199
20.344999 21.396999 1.2079999
18.129 20.433001 1.133
18.525999 21.014 1.156
18.676001 21.319 1.168
17.702 20.268999 1.119
19.211 20.323 0.977
17.886999 20.743999 1.135
17.941 20.940001 1.142
17.91 21.037001 1.143
18.542 21.919001 1.1799999
18.33 21.808001 1.1720001
16.181999 12.273 -1.428
17.978001 21.594 1.159
18.045 21.813999 1.166
17.950001 21.837999 1.165
17.25 21.256001 1.135
17.202 21.333 1.136
16.539 24.677 -1.118
16.916 21.319 1.1289999
16.84 21.499001 1.133
16.834 21.632 1.136
16.521999 21.368 1.122
16.445999 21.478001 1.124
16.395 21.552 1.125
16.167 22.177999 1.137
16.021999 22.271999 1.137
15.948 22.316 1.137
18.825001 21.138 -1.2180001
20.450001 19.475 -0.017000001
18.691999 20.783001 0.84500003
18.454 21.365 -0.017000001
18.768999 20.662001 0.48899999
20.326 25.622 -1.251
17.655001 20.344 1.12
20.379999 19.833 -0.193
18.990999 21.223 -0.53799999
20.444 21.141001 0.30000001
19.021999 21.207001 0.495
16.250999 12.569 -1.447
18.025999 13.864 -0.67299998
17.851 13.819 -0.66600001
16.448999 14.704 -0.64700001
16.398001 14.704 -0.64499998
16.313 14.721 -0.64300001
16.264999 14.771 -0.64300001
16.253 14.853 -0.64499998
16.240999 14.936 -0.64700001
16.200001 14.993 -0.64700001
16.254999 15.139 -0.65200001
20.476 19.752001 -0.89300001
20.426001 19.827999 -0.89300001
18.938 21.174 -0.017999999
20.436001 19.832001 -0.018999999
18.867001 21.167 -0.889
18.759001 21.18 -0.88700002
18.653999 21.195 -0.884
16.281 22.693001 -1.199
18.538 21.264 -0.884
18.108999 21.306999 0.49000001
18.427999 21.408001 -0.88499999
14.405 22.242001 -1.295
17.771999 25.507999 -0.99400002
17.712 25.591 -0.99599999
16.275 22.836 -1.204
17.478001 26.164 -1.196
14.555 22.243999 -1.3
18.24 21.691999 0.98699999
18.565001 21.228001 -0.88300002
18.733999 21.146 -0.017000001
18.495001 21.35 -0.88499999
20.487 20.914 0.50300002
18.858999 21.145 -0.192
20.469999 19.615999 -0.017999999
18.646999 21.173 -0.19
19.936001 25.294001 -1.229
18.660999 21.197001 -0.017000001
19.594999 19.848 -1.374
18.594 21.254999 -0.38699999
18.533001 20.792 0.48899999
18.129 21.636999 1.164
18.608 21.271 -0.017000001
18.77 22.823 -1.28
19.764999 20.813999 -0.02
20.517 20.035999 -0.02
18.493 21.399 -0.53299999
20.827999 24.313 -1.22
18.59 21.229 -1.051
18.546 21.334999 -0.017000001
15.051 16.437 -1.587
15.774 15.853 -1.447
16.177999 11.111 -1.373
16.190001 11.194 -1.378
15.876 11.275 -1.3609999
15.736 11.213 -1.349
15.683 11.25 -1.347
15.813 11.418 -1.364
15.791 11.478 -1.365
15.757 11.529 -1.365
15.994 11.779 -1.393
15.947 11.822 -1.392
16.278999 12.107 -1.427
16.207001 12.133 -1.423
16.295 12.278 -1.436
15.701 15.879 -1.444
16.132 12.315 -1.427
16.285 12.513 -1.447
17.893999 13.819 -0.51899999
16.159 12.538 -1.4400001
15.947 12.454 -1.4220001
15.89 12.49 -1.421
15.857 12.545 -1.421
15.86 12.628 -1.425
15.823 12.681 -1.426
15.76 12.712 -1.423
15.804 12.788 -1.4299999
15.65 12.745 -1.418
15.697 12.865 -1.427
15.779 13.016 -1.4400001
15.964 13.252 -1.464
15.906 13.288 -1.462
15.914 13.38 -1.467
15.892 13.404 -1.467
15.819 13.428 -1.464
15.67 13.387 -1.4529999
15.675 13.477 -1.457
15.598 13.496 -1.454
15.622 13.602 -1.461
15.588 13.659 -1.462
15.504 13.629 -1.455
16.504 14.673 -0.50199997
16.399 14.673 -0.5
16.343 14.715 -0.5
16.271 14.744 -0.498
16.246 14.813 -0.49900001
16.233 14.895 -0.50099999
16.233999 14.991 -0.50300002
16.233999 15.038 -0.50400001
15.308 14.199 -1.474
15.357 14.334 -1.484
15.306 14.376 -1.484
15.281 14.444 -1.4859999
15.328 14.579 -1.4960001
15.336 14.632 -1.5
15.236 14.629 -1.494
15.246 14.731 -1.5
15.259 14.836 -1.506
15.426 15.093 -1.53
15.555 15.314 -1.55
15.527 15.383 -1.553
15.621 15.525 -1.566
15.596 15.598 -1.569
15.601 15.7 -1.575
15.521 15.718 -1.571
15.412 15.707 -1.564
15.346 15.738 -1.563
15.279 15.768 -1.5599999
15.209 15.746 -1.5549999
15.163 15.797 -1.556
15.112 15.843 -1.556
18.014 13.75 0.83099997
15.094 16.024 -1.5650001
15.037 16.063999 -1.564
15.091 16.224001 -1.577
15.171 16.362 -1.589
15.14 16.431 -1.592
17.999001 13.828 0.83200002
14.936 16.415001 -1.58
14.942 16.525999 -1.586
14.895 16.579 -1.587
14.853 16.636999 -1.5880001
14.855 16.745001 -1.595
17.832001 13.878 0.82999998
14.78 16.924999 -1.602
14.761 17.011 -1.6059999
14.662 17.004 -1.6
18.028999 13.834 -1.2029999
14.662 17.222 -1.614
17.969 14.076 0.83600003
14.583 17.294001 -1.614
14.594 17.417999 -1.622
14.561 17.489 -1.625
15.948 14.782 0.27500001
14.47 17.604 -1.627
17.948 14.151 0.83700001
14.354 17.858999 -1.637
17.955999 14.049 -1.2079999
18.474001 20.858 0.48899999
16.268 14.864 -0.77700001
14.334 22.597 -1.6390001
16.473 13.012 -1.096
15.461 19.000999 -1.182
16.403999 13.041 -1.094
15.699 19.417 -1.209
20.621 21.539 1.028
17.087 13.674 -1.151
16.172001 20.131001 -1.257
15.455 14.738 0.27399999
16.121 20.197001 -1.258
15.415 14.886 0.27399999
20.636999 24.399 -1.2180001
18.924 20.195999 0.83899999
15.971 20.138 -1.25
20.417 19.829 0.29699999
15.173 19.257 -1.183
20.507 20.041 0.29699999
20.294001 21.332001 1.018
20.568001 20.164 0.29800001
14.427 23.634001 -1.363
21.052999 25.452999 -1.266
15.229 19.872999 -1.346
20.917 22.351 -1.158
14.885 22.594999 -1.0
17.853001 13.855 -0.38499999
19.663 21.1 -0.021
18.896 21.172001 -1.059
20.495001 20.929001 0.29899999
20.837999 25.355 -1.256
18.768 21.163 -1.054
20.487 21.052 0.29899999
18.674 21.190001 -1.053
18.104 21.257999 0.97600001
16.575001 14.712 -0.373
16.459 14.702 -0.37099999
16.385 14.728 -0.37
16.323 14.766 -0.36899999
16.281 14.821 -0.36899999
16.267 14.902 -0.37099999
16.289 14.969 -0.37200001
16.225 15.004 -0.37200001
18.527 21.292 -1.052
20.51 19.646 -0.53600001
20.506001 19.766001 -0.53799999
18.478001 21.371 -1.053
20.563999 20.073 -0.54500002
19.896999 20.966999 0.29800001
20.398001 25.139999 -1.2359999
15.818 11.311 -1.471
18.601 21.253 -0.53200001
19.830999 21.030001 0.29800001
15.81 11.342 -1.472
19.403 21.159 0.49700001
19.820999 21.086 0.29800001
15.8 11.411 -1.474
15.873 22.146999 -1.3380001
20.063999 21.424999 1.015
15.723 11.43 -1.47
18.827 21.173 -0.53399998
18.764 21.17 -0.53299999
18.677 21.205 -0.53200001
19.525999 21.035999 0.29699999
18.541 21.318001 -0.53200001
15.791 11.556 -1.4809999
18.509001 21.554001 -0.53600001
15.954 22.556999 -1.359
19.441 21.076 0.29699999
20.728001 25.877001 -1.271
15.764 11.612 -1.482
15.742 22.407 -1.345
15.753 11.681 -1.485
16.024 22.959999 -1.38
19.393 21.291 0.29800001
15.683 11.705 -1.4809999
16.070999 23.181999 -1.392
14.562 22.152 -1.128
18.923 20.336 0.972
15.66 11.726 -1.4809999
15.84 23.003 -1.376
18.419001 20.416 0.29300001
20.454 19.445 0.98400003
15.912 23.186001 -1.387
18.872 21.049999 0.296
17.983 20.009001 0.94800001
15.737 11.939 -1.497
15.996 23.465 -1.403
18.778999 21.079 0.296
15.735 12.016 -1.501
15.027 22.195999 -1.313
18.716999 21.143 0.296
16.357 12.741 -1.224
14.958 22.243 -1.313
14.469 22.160999 -1.125
18.656 21.207001 0.296
15.757 12.191 -1.512
14.84 22.219 -1.308
18.586 21.263 0.296
15.797 12.301 -1.52
14.744 22.225 -1.3049999
16.525999 11.751 -1.293
16.606001 11.887 -1.303
16.09 11.593 -1.26
16.919001 12.274 -1.339
16.044001 11.714 -1.262
16.106001 11.838 -1.272
17.728001 13.076 -1.4220001
16.782 12.458 -1.339
16.607 12.409 -1.326
17.167999 12.914 -1.382
16.878 12.778 -1.359
16.808001 12.808 -1.3559999
16.452999 12.619 -1.326
16.343 12.575 -1.318
15.677 12.407 -1.518
16.059 12.518 -1.299
16.052999 12.594 -1.302
15.98 12.619 -1.299
16.011 12.725 -1.306
16.282 13.025 -1.335
16.052 12.881 -1.3150001
15.997 12.921 -1.314
16.249001 13.209 -1.342
16.049999 13.131 -1.327
16.084999 13.245 -1.334
16.110001 13.35 -1.34
16.396999 13.676 -1.372
16.108 13.477 -1.346
16.138 13.589 -1.353
16.138 13.676 -1.357
16.069 13.705 -1.355
15.703 13.477 -1.323
15.654 13.521 -1.323
17.929001 13.889 -0.27000001
15.749 13.734 -1.3380001
15.887 13.942 -1.3559999
15.805 13.958 -1.352
15.77 14.015 -1.353
15.724 14.064 -1.353
15.554 13.999 -1.341
15.501 14.04 -1.34
15.517 14.099 -1.344
15.544 14.213 -1.351
15.524 14.284 -1.353
15.562 14.41 -1.3609999
15.489 14.433 -1.359
15.444 14.482 -1.359
15.389 14.522 -1.358
15.38 14.559 -1.359
15.397 14.668 -1.3660001
15.432 14.793 -1.374
15.397 14.853 -1.375
15.657 15.2 -1.4069999
15.785 15.421 -1.425
15.897 15.629 -1.441
16.113001 15.892 -1.466
16.004 15.883 -1.46
15.905 15.884 -1.455
16.330999 14.749 -0.25600001
16.296 14.811 -0.257
16.278 14.887 -0.257
16.25 14.956 -0.25799999
16.197001 15.001 -0.25799999
15.374 15.894 -1.428
15.352 15.971 -1.431
15.35 16.07 -1.436
15.353 16.174 -1.442
15.306 16.226999 -1.442
15.21 16.226999 -1.437
15.149 16.212999 -1.434
15.135 16.299999 -1.438
15.116 16.382 -1.441
15.083 16.450001 -1.443
15.03 16.496 -1.443
15.013 16.582001 -1.447
14.983 16.653999 -1.449
14.957 16.677999 -1.449
14.898 16.716999 -1.449
14.868 16.789 -1.451
14.736 16.746 -1.442
14.934 17.079 -1.47
14.889 17.136999 -1.471
14.958 17.325001 -1.485
14.993 17.422001 -1.492
15.077 17.631001 -1.508
14.886 17.518 -1.493
14.771 17.495001 -1.4859999
14.937 17.804001 -1.511
14.845 17.808001 -1.507
15.334 18.514 -1.5700001
16.145 17.014999 -1.248
18.855 24.235001 -1.1619999
17.627001 25.424999 -1.1720001
20.316999 21.101 0.653
18.868 21.162001 -0.389
18.743 21.155001 -0.38800001
18.659 21.195 -0.38699999
16.674 24.216 -1.104
18.580999 21.308001 -0.38800001
18.538 21.393 -0.38800001
18.575001 21.105 0.491
14.833 19.478001 -1.603
14.757 19.504999 -1.601
14.786 19.606001 -1.608
14.767 19.709999 -1.613
14.623 19.775 -1.6109999
14.558 19.818001 -1.6109999
14.545 19.931 -1.617
19.101999 20.155001 0.63
17.732 26.275 -1.206
19.048 20.225 0.63
18.948 24.514 -1.174
15.827 14.144 -1.258
18.459 24.753 -1.17
18.805 20.094 0.62599999
16.368 17.915001 -1.298
15.651 14.075 -1.2460001
18.768 20.18 0.62699997
18.629 21.302 0.493
20.452 19.664 -0.704
15.609 14.083 -1.244
17.921 20.066999 0.94800001
15.778 14.324 -1.2640001
18.694 20.292 0.62699997
15.712 14.355 -1.262
18.851 24.546 -1.173
16.257 14.869 0.032000002
15.546 14.383 -1.255
18.517 21.318001 0.296
18.646 21.388 0.49399999
17.937 13.877 -0.112
17.885 13.927 -0.112
15.579 14.505 -1.262
14.738 22.681 -0.99900001
17.902 20.172001 0.94999999
14.638 22.919001 -1.006
14.644 23.087 -1.012
20.191999 21.426001 1.018
17.285999 22.659 -1.064
14.624 23.216999 -1.017
18.648001 21.469 0.85600001
16.5 14.694 -0.104
16.389999 14.688 -0.103
16.32 14.718 -0.102
16.271999 14.768 -0.102
16.229 14.821 -0.103
16.222 14.909 -0.103
16.233 14.967 -0.104
16.246 15.074 -0.105
14.597 23.5 -1.027
17.812 20.198 0.949
17.794001 21.434 0.97399998
17.424 21.056 0.95999998
20.518999 19.787001 -0.018999999
17.363001 21.117001 0.95999998
20.223 20.860001 1.007
18.775 21.073999 0.85100001
17.351 21.238001 0.96200001
18.055 20.974001 0.48699999
20.545 20.066 -0.71499997
18.736 21.139999 -0.19
20.523001 20.167 -0.021
18.604 21.191999 -0.19
18.551001 21.264999 -0.19
18.5 21.341999 -0.19
18.667999 21.674 -0.19499999
17.177 21.296 0.95999998
16.339001 23.785999 -1.245
15.486 18.822001 -1.3049999
18.49 21.099001 0.97899997
18.698 24.747999 -1.176
17.0 21.351 0.95899999
14.727 22.174 -1.133
18.07 21.708 0.63700002
18.607 23.382999 -1.125
18.017 21.063999 0.48699999
16.872999 21.398001 0.95700002
17.774 20.412001 0.95200002
20.500999 19.773001 -0.70700002
16.768999 21.403 0.95599997
19.289 24.632999 -1.188
15.199 19.139 -1.309
18.177999 22.172001 -1.2359999
19.944 20.870001 -0.022
17.589001 12.875 -1.298
16.816999 12.639 -1.245
16.754 12.674 -1.243
16.737 12.744 -1.245
16.6 12.681 -1.235
16.462 12.658 -1.227
16.542 12.802 -1.237
17.872 13.845 0.028000001
16.125 12.643 -1.2079999
16.076 12.686 -1.207
15.964 12.679 -1.201
15.958 12.716 -1.202
16.021 12.848 -1.211
16.070999 12.971 -1.219
16.724001 13.584 -1.28
16.827 13.755 -1.293
16.476999 13.556 -1.266
16.545 13.699 -1.276
16.747 13.911 -1.296
16.622 13.896 -1.289
16.777 14.115 -1.306
16.271 13.777 -1.265
16.292999 13.884 -1.271
16.233 13.921 -1.2690001
16.228001 14.005 -1.273
16.087999 13.929 -1.262
15.909 13.862 -1.25
15.834 13.884 -1.247
15.633 13.795 -1.232
15.812 14.042 -1.253
16.559 14.72 0.030999999
16.433001 14.701 0.032000002
16.252001 14.631 0.034000002
16.194 14.671 0.034000002
16.26 14.825 0.032000002
15.689 14.425 -1.2640001
16.236 14.943 0.032000002
16.200001 15.005 0.032000002
15.538 14.558 -1.263
15.569 14.633 -1.268
15.436 14.6 -1.26
15.477 14.731 -1.268
15.501 14.847 -1.275
15.52 14.959 -1.281
15.475 15.009 -1.281
15.582 15.208 -1.296
16.834 16.479 -1.419
16.624001 16.375999 -1.403
16.372999 16.231001 -1.3839999
16.360001 16.32 -1.388
16.327999 16.391001 -1.39
16.181 16.346001 -1.38
16.016001 16.282 -1.369
15.898 16.212999 -1.36
16.068001 16.488001 -1.382
15.868 16.386999 -1.367
15.806 16.424999 -1.3660001
15.681 16.398001 -1.359
15.633 16.452 -1.359
15.429 16.34 -1.344
15.309 16.264 -1.335
15.269 16.323999 -1.336
15.435 16.605 -1.358
15.527 16.809 -1.372
15.305 16.674 -1.355
15.158 16.618999 -1.345
15.064 16.621 -1.341
15.08 16.690001 -1.345
15.226 16.958 -1.3660001
15.219 17.058001 -1.3710001
15.089 17.018999 -1.363
15.076 17.113001 -1.367
15.053 17.195 -1.37
14.795 17.009001 -1.349
14.985 17.281 -1.372
14.855 17.24 -1.364
14.978 17.493999 -1.382
14.906 17.521 -1.381
14.916 17.643999 -1.388
15.128 18.007999 -1.416
15.166 18.169001 -1.426
15.163 18.224001 -1.429
15.286 18.489 -1.448
15.077 18.354 -1.432
15.139 18.548 -1.4450001
15.037 18.541 -1.4400001
15.064 18.694 -1.45
14.919 18.634001 -1.4400001
15.102 18.922001 -1.464
14.955 18.860001 -1.454
14.871 18.875999 -1.451
14.558 18.599001 -1.423
14.562 18.725 -1.4299999
14.499 18.766001 -1.4299999
14.826 19.312 -1.473
14.877 19.504999 -1.4859999
14.752 19.403999 -1.475
14.749 19.527 -1.482
14.656 19.532 -1.478
14.66 19.666 -1.4859999
14.651 19.782 -1.492
14.551 19.777 -1.487
14.875 20.35 -1.5319999
14.903 20.455999 -1.539
14.992 20.714001 -1.557
14.899 20.722 -1.554
14.965 20.952 -1.569
15.05 21.209999 -1.587
15.187 21.546 -1.612
19.589001 20.971001 0.29699999
18.459 21.309 0.49200001
15.742 12.298 -1.516
16.281 12.61 -1.316
14.374 23.219 -1.341
14.511 22.252001 -1.299
15.307 14.109 -1.469
14.492 22.301001 -1.628
18.011999 13.933 0.171
17.955999 13.98 0.171
18.347 21.68 0.98900002
20.445 19.844 -0.708
20.299999 22.018999 -1.3
17.653999 25.211 -1.165
18.143 24.896 -1.1670001
16.556999 14.789 0.17200001
16.302999 14.654 0.17299999
15.941 14.419 0.17299999
16.306999 14.798 0.17200001
16.023001 14.631 0.17299999
16.163 14.852 0.17200001
15.815 14.624 0.17299999
15.755 14.66 0.17299999
15.663 14.667 0.17299999
15.63 14.729 0.17299999
15.54 14.69 0.17299999
15.553 14.889 0.17299999
15.519 14.95 0.17299999
20.497999 19.882 0.162
20.431 19.943001 0.162
18.066 24.955 -1.1670001
14.366 23.045 -1.332
19.886 20.931999 0.162
18.565001 21.559999 -0.391
20.091999 21.417 0.161
19.893 21.271999 0.161
19.742001 21.243 0.162
14.32 22.264 -1.294
18.889 21.176001 0.163
18.785999 21.193001 0.163
18.712 21.245001 0.163
18.665001 21.326 0.163
17.969 21.507 0.97899997
18.535 21.447001 0.163
17.261 21.264 0.96100003
18.788 21.139 -0.017000001
18.035 25.077999 -1.17
14.283 22.361 -1.2970001
15.843 12.178 -1.517
15.598 13.558 -1.321
17.952 25.128 -1.17
14.287 22.521999 -1.3049999
18.163 21.645 0.493
15.025 22.167 -1.141
17.913 25.240999 -1.173
17.280001 21.34 0.83399999
14.299 22.698 -1.314
19.666 22.014999 -1.279
17.684999 25.337999 -1.171
17.886999 13.868 0.278
17.844999 25.313999 -1.174
14.322 22.893999 -1.324
16.291 14.494 0.27599999
16.105 14.419 0.27500001
15.957 14.378 0.27500001
16.247999 14.685 0.27599999
16.188999 14.724 0.27599999
16.228001 14.853 0.27599999
15.847 14.597 0.27500001
17.891001 13.817 -1.196
15.661 14.609 0.27399999
15.709 14.746 0.27500001
15.785 14.863 0.27500001
15.779 14.951 0.27500001
17.033001 13.718 -1.15
17.08 13.845 -1.1569999
17.023001 13.887 -1.156
17.114 14.052 -1.1670001
17.125 14.106 -1.17
16.899 14.009 -1.155
16.705 13.936 -1.143
16.747999 14.062 -1.15
16.634001 14.055 -1.1440001
16.603001 14.119 -1.146
16.174 13.841 -1.114
16.414 14.092 -1.136
16.038 13.856 -1.108
16.045 13.951 -1.113
16.150999 14.133 -1.125
16.165001 14.235 -1.13
16.038 14.213 -1.123
16.014 14.281 -1.125
15.873 14.2 -1.115
15.843 14.263 -1.1160001
16.077999 14.567 -1.1390001
16.187 14.758 -1.152
15.846 14.539 -1.128
15.776 14.566 -1.126
15.638 14.529 -1.118
15.78 14.708 -1.132
15.626 14.656 -1.123
15.665 14.786 -1.13
15.726 14.937 -1.1390001
17.698999 16.923 -1.312
17.632 16.964001 -1.311
17.556 16.997 -1.309
17.452 16.950001 -1.302
17.157 16.768 -1.281
17.313 17.028 -1.3
17.044001 16.868999 -1.281
16.909 16.841 -1.274
17.122999 17.160999 -1.2970001
16.913 17.056999 -1.283
16.782 16.979 -1.274
16.549 16.847 -1.258
16.549999 16.955 -1.263
16.186001 16.686001 -1.235
16.209 16.815001 -1.242
16.132999 16.841999 -1.24
16.535 17.371 -1.281
16.492001 14.707 -0.25799999
15.475 16.41 -1.193
16.488001 17.597 -1.289
16.434999 17.652 -1.289
16.473 17.804001 -1.298
16.417999 17.858 -1.298
16.385 14.704 -0.257
16.153999 17.737 -1.281
15.864 17.528 -1.26
15.777 17.542 -1.257
15.524 17.370001 -1.238
15.322 17.253 -1.225
15.488 17.551001 -1.245
15.182 17.312 -1.222
15.278 17.478001 -1.233
15.189 17.486 -1.23
15.489 17.945 -1.2640001
15.067 17.568001 -1.229
15.041 17.649 -1.232
15.115 17.85 -1.244
15.143 17.997 -1.252
15.333 18.282 -1.273
15.387 18.464001 -1.284
15.314 18.493 -1.283
15.695 15.974 -1.449
15.319 18.739 -1.295
15.327 18.870001 -1.301
15.173 18.799 -1.2920001
15.212 18.909 -1.299
15.237 19.063 -1.307
15.505 15.879 -1.434
15.051 19.075001 -1.3
15.098 19.259001 -1.311
15.024 19.289 -1.3099999
15.522 20.059999 -1.3660001
15.034 19.490999 -1.3200001
15.481 15.904 -1.434
15.014 19.719999 -1.33
14.822 19.594999 -1.317
14.915 19.847 -1.3329999
15.166 20.315001 -1.3660001
14.99 20.209999 -1.354
15.033 20.334999 -1.362
15.344 20.893999 -1.401
15.394 21.101999 -1.413
15.346 21.174999 -1.415
15.377 21.358999 -1.425
15.312 21.41 -1.426
15.218 21.421 -1.423
15.138 21.451 -1.421
15.281 21.726 -1.4400001
15.604 22.336 -1.483
16.034 23.107 -1.5369999
16.027 23.252001 -1.544
15.9 23.223 -1.538
15.983 23.503 -1.5549999
15.033 22.254 -1.459
14.965 22.229 -1.455
14.875 22.243999 -1.4529999
14.78 22.254 -1.45
14.693 22.274 -1.448
14.591 22.271999 -1.444
14.501 22.287001 -1.442
14.417 22.311001 -1.441
14.353 22.288 -1.437
14.285 22.337 -1.437
14.322 22.549999 -1.45
14.306 22.683001 -1.456
14.324 22.870001 -1.467
14.354 23.079 -1.479
14.34 23.219 -1.485
14.393 23.388 -1.4960001
14.432 23.617001 -1.5089999
18.788 21.143 -0.70099998
16.587 24.250999 -1.103
20.511999 19.780001 -0.39199999
18.068001 22.466999 -1.244
20.461 19.856001 -0.39300001
20.48 19.937 -0.39399999
20.496 19.913 -1.2309999
15.411 13.634 -1.45
16.794001 24.719999 -1.126
14.381 23.393 -1.35
20.445 20.115 -1.237
15.355 13.67 -1.448
15.438 13.831 -1.462
15.438 13.918 -1.467
17.158001 21.410999 0.963
15.413 13.984 -1.469
19.916 20.028999 -1.215
15.406 14.066 -1.473
19.927999 21.108 0.161
15.374 14.081 -1.472
18.039 13.785 0.43700001
18.016001 13.857 0.43700001
17.952999 13.899 0.43700001
17.962 13.996 0.43700001
17.973 14.096 0.43799999
20.402 19.368 -0.016000001
20.465 19.851 -0.53899997
14.837 22.677 -1.002
16.525999 14.773 0.43099999
16.384001 14.692 0.43000001
16.357 14.761 0.43000001
16.198 14.71 0.428
15.972 14.596 0.426
16.212999 14.911 0.43000001
16.174999 14.97 0.43000001
16.070999 14.967 0.42899999
16.094999 15.037 0.43000001
15.693 14.753 0.42500001
15.617 14.775 0.42500001
15.416 14.676 0.42199999
15.35 14.705 0.42199999
15.312 14.762 0.42199999
15.174 14.767 0.421
15.161 14.848 0.42199999
15.155 14.935 0.42199999
15.839 15.71 0.433
15.548 15.518 0.42899999
15.487 15.554 0.42899999
15.48 15.645 0.43000001
15.772 11.377 -1.586
15.722 11.378 -1.5829999
15.718 11.451 -1.586
15.616 11.452 -1.579
15.557 11.484 -1.576
15.573 11.571 -1.582
15.579 11.652 -1.587
15.56 11.714 -1.589
15.51 11.715 -1.585
15.479 11.768 -1.586
15.487 11.851 -1.591
15.432 11.886 -1.589
15.434 11.965 -1.594
15.446 12.052 -1.6
15.399 12.093 -1.599
15.386 12.123 -1.599
15.397 12.209 -1.605
15.386 12.28 -1.608
15.358 12.337 -1.61
15.334 12.396 -1.6109999
15.326 12.469 -1.615
15.309 12.536 -1.618
15.311 12.578 -1.62
15.319 12.665 -1.626
15.29 12.722 -1.627
15.278 12.793 -1.63
15.259 12.859 -1.633
15.235 12.921 -1.635
15.222 12.992 -1.638
17.75 20.514999 0.954
14.943 22.528 -0.99900001
19.028999 21.208 -0.39199999
18.003 13.839 -1.081
17.954 13.892 -1.081
17.041 14.154 -1.05
17.011999 14.357 -1.056
17.454 14.823 -1.092
17.579 15.024 -1.105
16.802999 14.454 -1.05
18.916 21.152 -0.704
16.587999 14.682 -1.05
16.455 14.657 -1.043
16.296 14.608 -1.034
16.296 14.7 -1.038
16.208 14.714 -1.035
16.1 14.708 -1.03
16.162001 14.812 -1.0369999
16.23 14.968 -1.045
16.136 14.975 -1.0420001
16.247 15.173 -1.054
17.43 16.378 -1.149
18.555 17.542 -1.2410001
18.478001 17.58 -1.239
18.296 17.462 -1.227
17.941 17.232 -1.204
17.768999 17.174 -1.194
17.620001 17.138 -1.187
17.533001 17.160999 -1.184
17.489 17.226 -1.1849999
20.302999 20.118 -1.413
19.908001 19.851999 -1.387
19.164 19.17 -1.33
19.174999 19.302999 -1.335
17.033001 21.327999 1.132
17.708 18.054001 -1.227
17.938 18.403 -1.25
17.976 18.558001 -1.258
18.101999 18.805 -1.273
16.806 17.517 -1.17
16.909 17.735001 -1.183
17.066999 18.013 -1.2
17.158001 18.223 -1.212
17.054001 18.226999 -1.2079999
16.993 18.277 -1.2079999
18.219999 19.716999 -1.3150001
16.563999 18.099001 -1.184
17.875 19.652 -1.299
15.475 17.127001 -1.102
15.634 17.521 -1.125
15.305 17.263 -1.102
15.287 17.297001 -1.102
15.187 17.292999 -1.098
15.219 17.440001 -1.1059999
16.045 18.5 -1.182
15.89 18.438999 -1.173
15.07 15.899 -1.556
16.134001 18.959999 -1.205
15.77 18.593 -1.176
16.673 19.781 -1.26
15.798 18.865 -1.188
15.984 19.209 -1.21
15.723 19.016001 -1.192
15.563 18.944 -1.183
15.431 18.903999 -1.177
18.018 13.76 0.55299997
18.013 13.846 0.55299997
17.865999 13.868 0.55199999
18.004 14.066 0.55500001
17.982 14.139 0.55599999
17.974001 14.224 0.55599999
15.816 20.202 -1.248
15.897 20.371 -1.258
15.826 20.412001 -1.257
15.675 20.349001 -1.249
15.474 20.219 -1.237
15.605 20.524 -1.255
15.563 20.603001 -1.257
15.432 20.563999 -1.251
15.715 21.007999 -1.28
15.576 20.959999 -1.274
15.363 20.809999 -1.26
15.415 21.017 -1.271
15.895 21.813999 -1.323
15.85 21.896 -1.325
15.822 22.002001 -1.329
16.330999 14.318 0.53799999
16.076 22.579 -1.364
16.278 14.499 0.53899997
16.302999 14.613 0.54100001
16.153 14.57 0.53899997
16.138 14.649 0.53899997
16.104 14.711 0.54000002
16.125 14.776 0.54000002
16.198999 14.938 0.54299998
15.812 14.674 0.53600001
15.729 14.689 0.53500003
15.667 14.723 0.53500003
15.898 15.035 0.54100001
15.461 14.714 0.53200001
15.436 14.737 0.53200001
15.28 14.68 0.52999997
15.183 14.68 0.52899998
15.196 14.784 0.52999997
15.308 14.987 0.53399998
15.385 15.157 0.53600001
15.366 15.233 0.537
15.345 15.308 0.537
15.423 15.434 0.54000002
15.402 15.511 0.54000002
15.413 15.619 0.542
15.417 15.722 0.54299998
20.532 21.056999 0.65499997
20.473 21.129 0.65499997
18.101999 22.655001 -1.253
20.385 21.238001 0.65600002
19.187 20.118 0.63099998
18.274 21.639 0.493
14.666 22.726 -0.99900001
14.666 22.158001 -1.131
18.052999 22.74 -1.2539999
19.856001 21.483999 0.653
18.635 21.171 -0.69800001
18.615 20.334 0.62699997
19.403 21.327 0.64600003
18.878 20.882 0.63599998
18.693001 20.809 0.63300002
18.808001 21.069 0.63700002
18.753 21.142 0.63800001
18.784 21.243 0.639
18.705 21.288 0.639
18.628 21.334999 0.639
18.194 20.972 0.63
18.476999 21.433001 0.63800001
18.493 21.587999 0.63999999
17.884001 21.011999 0.62699997
18.368 21.785999 0.64099997
18.181999 21.702999 0.63800001
18.267 22.424 -1.249
17.302999 21.055 0.62199998
17.337999 21.233 0.625
17.493999 21.493 0.62900001
17.028 21.056999 0.62
18.695999 21.674 0.995
14.604 22.787001 -1.0
14.616 17.059 -1.601
16.681 21.914 -1.179
18.51 21.297001 -0.699
14.654 17.268 -1.6160001
18.688 21.164 -0.699
16.973 22.517 -1.212
16.218 20.033001 -1.091
17.941999 21.528999 0.29499999
14.488 17.514 -1.623
18.488001 21.408001 -0.70099998
16.025999 18.714001 -1.1900001
17.893 24.535 -1.321
14.648 23.417 -1.025
18.601999 21.389 0.163
17.841999 24.627001 -1.323
14.334 17.549999 -1.617
17.843 24.709999 -1.327
18.167999 13.987 -0.94800001
16.503 14.671 -0.90499997
16.407 14.679 -0.90200001
16.32 14.693 -0.89899999
16.242001 14.716 -0.89700001
16.232 14.754 -0.898
16.226 14.841 -0.90100002
16.232 14.941 -0.90399998
16.239 15.042 -0.90799999
16.243 15.141 -0.91100001
18.747 17.702999 -1.091
18.535999 17.892 -1.09
16.695 23.583 -1.247
20.502001 20.045 -1.2359999
18.488001 21.450001 -1.056
20.506001 20.238001 -1.243
20.416 20.277 -1.2410001
20.313999 20.302999 -1.239
16.455999 23.4 -1.233
19.827 20.066 -1.2130001
19.997999 20.367001 -1.23
18.118999 18.625 -1.101
19.693001 20.374001 -1.219
19.611 20.417 -1.2180001
19.535999 20.466 -1.217
19.43 20.483999 -1.214
19.483 20.67 -1.223
19.459 20.775 -1.226
20.159 21.66 -1.2819999
20.337 21.92 -1.298
16.341999 23.551001 -1.2359999
20.326 22.186001 -1.307
20.295 22.292999 -1.3099999
20.138 22.26 -1.304
19.818001 22.045 -1.285
15.363 15.55 0.27599999
16.42 23.743999 -1.2460001
18.716999 21.150999 -1.215
18.622 21.176001 -1.212
18.549 21.226999 -1.212
18.459999 21.26 -1.21
18.427999 21.358999 -1.2130001
18.440001 21.509001 -1.219
19.726999 23.087 -1.321
16.916 19.917999 -1.109
20.490999 24.290001 -1.392
18.865999 22.504 -1.271
18.877001 22.806999 -1.283
18.033001 13.742 0.72500002
18.023001 13.824 0.72600001
18.041 13.883 0.727
18.004999 13.946 0.727
17.940001 13.986 0.72600001
18.013 14.134 0.73000002
17.979 14.199 0.73000002
17.972 14.286 0.73100001
17.924999 22.798 -1.253
17.872 22.879 -1.2539999
15.797 20.349001 -1.09
17.063999 22.128 -1.2
14.931 22.177999 -1.1390001
16.993 22.472 -1.211
14.674 22.271999 -1.3049999
16.959999 22.649 -1.217
16.756001 22.523001 -1.206
16.702 22.747999 -1.214
14.832 22.181 -1.136
16.098 13.727 0.69
16.038 13.763 0.69
15.988 13.807 0.68900001
16.24 14.115 0.69800001
16.08 14.021 0.69400001
16.062 14.094 0.69499999
16.396 23.471001 -1.234
16.548 14.799 0.71399999
16.424999 14.783 0.71200001
16.068001 14.552 0.70200002
16.257999 14.771 0.70899999
16.238001 14.847 0.70899999
16.152 14.861 0.708
16.219 15.018 0.71200001
15.858 14.775 0.70200002
15.605 14.724 0.69700003
