# .PCD v0.7 - Point Cloud Data file format
VERSION 0.7
FIELDS x y z
SIZE 4 4 4
TYPE F F F
COUNT 1 1 1
WIDTH 82
HEIGHT 1
VIEWPOINT 0 0 0 1 0 0 0
POINTS 82
DATA ascii
10.115 -43.792 -0.96700001
10.247 -43.737 -0.96700001
10.379 -43.681 -0.96600002
10.443 -43.643002 -0.96600002
10.579 -43.608002 -0.96499997
10.719 -43.589001 -0.96600002
10.852 -43.536999 -0.96499997
10.995 -43.526001 -0.96600002
11.142 -43.534 -0.96700001
11.282 -43.512001 -0.96799999
11.369 -43.563999 -0.96899998
15.091 -43.026001 -1.554
15.507 -43.122002 -1.563
15.598 -42.952999 -1.558
15.837 -42.77 -1.554
15.714 -42.851002 -1.5549999
14.821 -43.119999 -1.554
10.037 -43.855999 -0.73799998
10.162 -43.77 -0.73699999
10.288 -43.691002 -0.736
10.423 -43.648998 -0.736
10.554 -43.59 -0.73500001
10.623 -43.574001 -0.73500001
10.761 -43.546001 -0.73500001
10.901 -43.523998 -0.736
11.041 -43.505001 -0.736
11.182 -43.487 -0.736
11.304 -43.394001 -0.73500001
9.2019997 -45.235001 -1.575
9.2550001 -45.132 -1.572
9.368 -44.964001 -1.567
9.4989996 -44.888 -1.5650001
9.6230001 -44.778999 -1.562
9.7469997 -44.673 -1.559
9.8769999 -44.595001 -1.557
10.016 -44.560001 -1.557
10.053 -44.397999 -1.551
10.653 -44.445 -1.558
10.797 -44.432999 -1.559
11.134 -44.298 -1.557
11.258 -44.205002 -1.554
11.4 -44.182999 -1.5549999
12.045 -44.094002 -1.558
12.195 -44.097 -1.5599999
12.59 -43.910999 -1.557
12.711 -43.813 -1.5549999
12.769 -43.755001 -1.553
12.895 -43.678001 -1.552
13.035 -43.646999 -1.552
13.178 -43.625 -1.553
13.309 -43.563999 -1.552
13.442 -43.508999 -1.551
13.575 -43.455002 -1.551
13.635 -43.407001 -1.55
14.093 -43.43 -1.556
14.212 -43.331001 -1.554
14.348 -43.287998 -1.554
14.476 -43.220001 -1.553
14.546 -43.202999 -1.553
14.683 -43.160999 -1.553
10.353 -43.641998 -1.2309999
10.485 -43.588001 -1.2309999
10.555 -43.577999 -1.2309999
10.691 -43.540001 -1.2309999
10.829 -43.512001 -1.2309999
11.05 -43.813 -1.242
11.196 -43.811001 -1.243
15.993 -42.778 -1.557
16.138 -42.756001 -1.558
16.297001 -42.77 -1.5599999
16.379999 -42.786999 -1.562
16.544001 -42.812 -1.5650001
16.698 -42.807999 -1.567
16.856001 -42.817001 -1.5700001
17.031 -42.863998 -1.574
17.197001 -42.889999 -1.577
17.362 -42.91 -1.58
17.462999 -42.966 -1.584
17.628 -42.985001 -1.587
17.806999 -43.034 -1.591
14.959 -43.083 -1.554
18.507 -43.557999 -1.62
