# .PCD v0.7 - Point Cloud Data file format
VERSION 0.7
FIELDS x y z
SIZE 4 4 4
TYPE F F F
COUNT 1 1 1
WIDTH 269
HEIGHT 1
VIEWPOINT 0 0 0 1 0 0 0
POINTS 269
DATA ascii
8.6099997 -6.5500002 -0.92900002
8.724 -6.2449999 -0.139
8.6820002 -6.4330001 -0.54100001
8.6549997 -6.3709998 -0.537
8.6429996 -6.3200002 -0.53500003
8.6719999 -6.2909999 -0.139
8.6470003 -6.2610002 -0.53200001
8.6440001 -6.217 -0.52999997
8.6669998 -6.1919999 -0.53100002
8.8950005 -6.263 -0.14399999
8.6780005 -6.118 -0.528
8.7040005 -6.0949998 -0.52899998
8.7019997 -6.0739999 -0.528
8.7939997 -6.098 -0.53399998
8.6230001 -6.52 -0.86199999
8.6289997 -6.2360001 -0.98100001
8.5819998 -6.3829999 -0.85000002
8.6499996 -6.1399999 -0.90700001
8.5699997 -6.2919998 -0.84399998
8.691 -6.2140002 -0.458
8.6090002 -6.2379999 -0.84399998
8.6239996 -6.2069998 -0.84299999
8.6230001 -6.1859999 -0.84200001
8.6739998 -6.1820002 -0.84600002
8.6920004 -6.1529999 -0.84600002
8.7419996 -6.1479998 -0.84899998
8.776 -6.1300001 -0.85100001
8.8549995 -6.1430001 -0.85799998
8.8559999 -6.0009999 -0.85000002
8.8629999 -5.9660001 -0.84899998
8.8479996 -5.9159999 -0.84500003
8.96 -5.9489999 -0.85600001
8.5939999 -6.302 -1.164
8.6099997 -6.2729998 -1.163
8.6400003 -6.2519999 -1.165
8.8109999 -6.4310002 -1.346
8.7989998 -6.3060002 -1.1849999
8.8710003 -6.3150001 -1.193
8.8870001 -6.2849998 -1.193
8.9180002 -6.2649999 -1.1950001
8.9490004 -6.2449999 -1.197
8.559 -6.329 -1.309
8.7049999 -6.3569999 -0.141
8.6300001 -6.5679998 -0.86500001
8.6859999 -6.1900001 -0.45699999
8.6309996 -6.29 -0.53299999
8.6660004 -6.23 -1.166
8.7080002 -6.2750001 -0.139
8.7130003 -6.381 -0.212
8.7349997 -6.2119999 -0.139
8.5869999 -6.3080001 -1.3099999
8.6739998 -6.342 -0.27399999
8.691 -6.3330002 -0.27500001
8.691 -6.2919998 -0.27399999
8.6759996 -6.158 -0.52999997
8.7189999 -6.2290001 -0.273
8.7600002 -6.217 -0.27399999
8.835 -6.2280002 -0.27700001
8.8800001 -6.2189999 -0.27900001
8.6379995 -6.3790002 -0.40400001
8.6450005 -6.3429999 -0.403
8.6379995 -6.2950001 -0.40099999
8.651 -6.2639999 -0.40099999
8.6350002 -6.211 -0.39899999
8.6479998 -6.1989999 -0.39899999
8.6529999 -6.1620002 -0.398
8.677 -6.138 -0.398
8.7080002 -6.119 -0.39899999
8.7399998 -6.1009998 -0.40000001
8.8520002 -6.138 -0.40599999
8.5340004 -6.3530002 -1.308
9.0089998 -6.2789998 -1.2819999
8.5869999 -6.29 -0.77700001
8.9370003 -6.355 -1.28
8.665 -6.559 -1.135
8.7040005 -6.5450001 -1.138
8.6300001 -6.3639998 -1.117
8.6149998 -6.3309999 -1.113
8.6269999 -6.2979999 -1.112
8.6450005 -6.27 -1.112
8.677 -6.2519999 -1.114
8.7080002 -6.2329998 -1.115
8.8699999 -6.3060002 -1.137
8.8970003 -6.283 -1.138
8.6899996 -6.2490001 -0.27200001
8.5679998 -6.3280001 -0.912
8.5760002 -6.3379998 -0.847
8.9350004 -6.3660002 -1.483
8.9230003 -6.3639998 -1.353
8.5880003 -6.2639999 -0.84399998
8.6590004 -6.573 -1.006
8.559 -6.2789998 -0.90799999
8.4910002 -6.4590001 -1.36
8.4790001 -6.4289999 -1.3559999
8.4840002 -6.3920002 -1.354
8.5089998 -6.369 -1.354
8.5290003 -6.342 -1.354
8.6099997 -6.3600001 -1.365
8.927 -6.3579998 -1.403
8.7959995 -6.3410001 -0.078000002
8.9289999 -6.2750001 -1.396
9.1339998 -6.3759999 -1.429
8.6160002 -6.3740001 -0.78399998
8.585 -6.3299999 -0.77899998
8.7270002 -6.4699998 -0.46900001
8.5769997 -6.2509999 -0.90799999
8.6190004 -6.3569999 -1.245
8.6359997 -6.382 -0.66000003
8.6379995 -6.3699999 -0.722
8.6219997 -6.3299999 -0.65700001
8.6099997 -6.224 -0.77600002
8.6330004 -6.3249998 -0.71899998
8.6490002 -6.4400001 -0.79000002
8.7910004 -6.316 -0.078000002
8.7939997 -6.277 -0.077
8.8339996 -6.263 -0.078000002
8.5939999 -6.2529998 -0.77600002
8.7349997 -6.4549999 -0.34200001
8.6330004 -6.1989999 -0.77600002
8.6490002 -6.1700001 -0.77600002
8.6960001 -6.1620002 -0.77899998
8.7139997 -6.1539998 -0.77999997
8.7609997 -6.1459999 -0.78299999
8.7209997 -6.0780001 -0.77600002
8.7919998 -6.0869999 -0.78200001
8.7749996 -6.0339999 -0.778
8.783 -5.9990001 -0.77700001
8.7969999 -5.9879999 -0.77700001
8.7049999 -6.3920002 -0.59399998
8.8100004 -5.9159999 -0.77399999
8.6929998 -6.3200002 -0.58999997
8.7130003 -6.2930002 -0.58999997
8.7259998 -6.2610002 -0.58999997
8.7469997 -6.2350001 -0.58999997
8.7799997 -6.2160001 -0.59100002
8.7519999 -6.1560001 -0.58700001
8.7659998 -6.125 -0.58600003
8.783 -6.1149998 -0.58700001
8.8409996 -6.1149998 -0.59100002
8.6569996 -6.4879999 -1.067
8.7440004 -6.5100002 -1.076
8.9630003 -6.3309999 -1.281
8.5950003 -6.2740002 -1.046
8.7119999 -6.1669998 -0.458
8.6149998 -6.2259998 -1.045
8.6669998 -6.4650002 -0.92799997
8.6809998 -6.1919999 -1.049
8.8339996 -6.2589998 -1.068
9.1059999 -6.4099998 -1.104
8.7200003 -6.132 -0.45699999
8.5950003 -6.223 -0.90700001
8.6129999 -6.1950002 -0.90700001
8.6339998 -6.1690001 -0.90700001
8.6990004 -6.1989999 -0.333
8.684 -6.1430001 -0.91000003
8.7629995 -6.158 -0.91799998
8.7840004 -6.132 -0.91799998
8.8050003 -6.1059999 -0.91799998
8.934 -6.323 -1.479
8.7040005 -6.1609998 -0.33199999
8.9759998 -6.2680001 -1.48
8.9169998 -6.3169999 -1.349
8.7580004 -6.5149999 -0.60299999
8.7340002 -6.1420002 -0.333
8.6169996 -6.585 -1.003
8.934 -6.2870002 -1.348
8.665 -6.5349998 -1.0039999
8.7189999 -6.4439998 -0.597
8.6420002 -6.3699999 -0.991
8.6049995 -6.302 -0.98299998
8.6040001 -6.2600002 -0.98000002
9.1610003 -6.4050002 -1.3839999
8.6400003 -6.2030001 -0.98000002
8.8210001 -5.9640002 -0.778
8.7460003 -6.1960001 -0.98900002
8.9289999 -6.3039999 -1.013
8.8400002 -6.1589999 -0.995
8.6990004 -6.3460002 -0.59200001
8.7040005 -6.3319998 -0.211
8.7119999 -6.2969999 -0.20999999
8.7299995 -6.2680001 -0.20999999
8.7620001 -6.2490001 -0.211
8.8299999 -6.256 -0.213
8.842 -6.243 -0.213
8.9560003 -6.2820001 -0.21799999
8.6890001 -6.4640002 -0.66799998
8.6809998 -6.415 -0.465
8.6610003 -6.3579998 -0.46200001
8.6599998 -6.316 -0.46000001
8.6409998 -6.2610002 -0.65499997
8.651 -6.2259998 -0.65399998
8.6639996 -6.2150002 -0.65399998
8.6879997 -6.191 -0.65499997
8.7299995 -6.1799998 -0.65700001
8.7580004 -6.158 -0.65799999
8.7670002 -6.1240001 -0.45899999
8.8470001 -6.138 -0.46399999
8.7419996 -6.0450001 -0.65100002
8.8000002 -6.0450001 -0.65499997
8.7180004 -6.0900002 -0.65200001
8.3950005 -6.527 -1.563
8.401 -6.4899998 -1.561
8.3990002 -6.447 -1.556
8.4510002 -6.4439998 -1.562
8.5819998 -6.6230001 -1.069
9.0050001 -6.3429999 -1.624
8.9840002 -6.2870002 -1.6160001
9.0030003 -6.257 -1.6160001
9.0190001 -6.2270002 -1.615
9.0600004 -6.2340002 -1.6210001
9.1070004 -6.224 -1.626
9.1459999 -6.2090001 -1.63
9.2049999 -6.2069998 -1.638
8.5880003 -6.506 -1.586
8.6219997 -6.4559999 -0.85799998
8.6370001 -6.5149999 -1.067
8.7189999 -6.0500002 -0.64999998
8.5900002 -6.3109999 -1.048
8.5939999 -6.2519999 -1.044
8.6709995 -6.2620001 -0.33399999
8.599 -6.4980001 -0.92500001
8.6440001 -6.2059999 -1.046
8.5930004 -6.388 -0.917
8.6169996 -6.4169998 -1.25
8.625 -6.382 -1.248
8.6560001 -6.4250002 -0.72600001
8.6569996 -6.3429999 -1.248
8.6689997 -6.3099999 -1.247
8.6450005 -6.2919998 -0.71799999
8.6450005 -6.2509999 -0.71600002
8.6549997 -6.237 -0.71600002
8.6719999 -6.2080002 -0.71600002
8.717 -6.1989999 -0.71799999
8.7460003 -6.178 -0.71899998
8.7790003 -6.1599998 -0.72100002
8.7819996 -6.1209998 -0.71899998
8.7709999 -6.073 -0.71600002
8.7709999 -6.0320001 -0.71399999
8.7880001 -6.0240002 -0.71499997
8.8039999 -5.994 -0.71499997
8.8470001 -5.9829998 -0.71700001
8.6490002 -6.5669999 -1.072
8.4549999 -6.5170002 -1.438
8.4519997 -6.4720001 -1.433
8.9460001 -6.277 -1.275
8.6490002 -6.329 -0.33500001
8.6780005 -6.3709998 -0.33700001
8.5080004 -6.388 -1.432
8.5740004 -6.4180002 -1.443
8.7340002 -6.3150001 -1.2539999
8.6719999 -6.3039999 -0.33500001
8.9510002 -6.2930002 -1.479
8.5950003 -6.3439999 -1.1670001
8.4799995 -6.4089999 -1.431
9.0469999 -6.276 -1.489
8.724 -6.2659998 -1.25
8.4969997 -6.4089999 -1.308
9.0950003 -6.401 -1.166
8.684 -6.2919998 -0.461
8.6879997 -6.2319999 -0.333
8.9189997 -6.3099999 -1.398
8.6120005 -6.6240001 -1.005
8.684 -6.1929998 -0.98299998
8.9569998 -6.3899999 -1.285
8.5159998 -6.381 -1.308
8.632 -6.296 -0.65600002
8.6669998 -6.2379999 -0.458
8.7060003 -6.5229998 -1.007
8.4630003 -6.4380002 -1.431
