# .PCD v0.7 - Point Cloud Data file format
VERSION 0.7
FIELDS x y z
SIZE 4 4 4
TYPE F F F
COUNT 1 1 1
WIDTH 808
HEIGHT 1
VIEWPOINT 0 0 0 1 0 0 0
POINTS 808
DATA ascii
6.5770001 -1.631 -1.387
6.5949998 -1.614 -1.39
6.5929999 -1.591 -1.388
6.5669999 -1.563 -1.381
6.5890002 -1.5470001 -1.385
5.7690001 -1.5319999 -0.49900001
6.5960002 -1.526 -1.385
6.9429998 -1.551 -1.462
6.0110002 -1.487 -0.255
6.816 -1.538 -1.1670001
5.4749999 -1.783 -1.112
6.158 -1.498 -1.0
7.092 -1.6160001 -1.622
5.7509999 -1.832 -0.39199999
5.7319999 -1.807 -0.38999999
5.7090001 -1.78 -0.38699999
5.6950002 -1.7460001 -0.38499999
5.7080002 -1.73 -0.38499999
5.7189999 -1.714 -0.38600001
5.6760001 -1.682 -0.38100001
5.6950002 -1.668 -0.38299999
5.7119999 -1.654 -0.384
5.6820002 -1.635 -0.38
5.7080002 -1.623 -0.38299999
5.7249999 -1.609 -0.384
5.71 -1.585 -0.382
5.7249999 -1.5700001 -0.38299999
5.73 -1.552 -0.38299999
5.7350001 -1.534 -0.38299999
5.7659998 -1.533 -0.38600001
5.75 -1.5089999 -0.38299999
5.816 -1.507 -0.38999999
5.73 -1.8789999 -0.54100001
5.717 -1.854 -0.53899997
5.7150002 -1.834 -0.53799999
5.7090001 -1.822 -0.53600001
5.7220001 -1.773 -1.1619999
5.737 -1.7920001 -0.53899997
5.7140002 -1.765 -0.53500003
5.7080002 -1.743 -0.53399998
5.9770002 -1.7690001 -1.214
6.0949998 -1.631 0.0020000001
5.7090001 -1.6849999 -0.53200001
5.7059999 -1.675 -0.53100002
5.8909998 -1.6339999 -1.189
5.7069998 -1.636 -0.52999997
5.8579998 -1.585 -1.179
5.8509998 -1.564 -1.177
5.849 -1.543 -1.175
5.868 -1.539 -1.179
5.875 -1.521 -1.179
5.8699999 -1.5 -1.177
5.941 -1.498 -1.192
6.085 -1.513 -1.222
6.6090002 -1.5420001 -1.3329999
6.9239998 -1.523 -1.398
6.098 -1.5 -0.57200003
6.0929999 -1.479 -0.57099998
6.1100001 -1.462 -0.57200003
6.1079998 -1.442 -0.57099998
6.1259999 -1.426 -0.57300001
6.1500001 -1.411 -0.57499999
6.1700001 -1.405 -0.57800001
6.1680002 -1.5470001 -0.041000001
6.0349998 -1.613 -0.184
5.8070002 -1.608 -0.28200001
5.7410002 -1.835 -0.83200002
5.9569998 -1.3940001 -0.40000001
6.0339999 -1.592 -0.183
5.823 -1.5930001 -0.28299999
5.4899998 -1.768 -1.114
6.033 -1.572 -0.183
5.8319998 -1.576 -0.28299999
5.9889998 -1.511 -0.25299999
5.8449998 -1.559 -0.28400001
5.7989998 -1.88 -0.47600001
5.7649999 -1.849 -0.472
5.79 -1.837 -0.47400001
5.6869998 -1.766 -0.461
5.7649999 -1.77 -0.46900001
5.7550001 -1.747 -0.46700001
5.7579999 -1.738 -0.46700001
5.7459998 -1.715 -0.465
5.7579999 -1.698 -0.46599999
5.757 -1.679 -0.465
5.7490001 -1.6569999 -0.46399999
5.7659998 -1.642 -0.465
5.6599998 -1.864 -0.56300002
5.816 -1.617 -0.47
5.7820001 -1.598 -0.46599999
5.7969999 -1.582 -0.46700001
5.8060002 -1.5650001 -0.46700001
5.8200002 -1.549 -0.46799999
5.6560001 -1.844 -0.56199998
5.8779998 -1.525 -0.47400001
5.9190001 -1.515 -0.47799999
5.9640002 -1.517 -0.48300001
5.848 -1.724 -1.235
6.0489998 -1.498 -0.491
5.665 -1.837 -0.56300002
6.0640001 -1.461 -0.49200001
6.0650001 -1.441 -0.49200001
6.0939999 -1.438 -0.495
6.079 -1.414 -0.49200001
6.099 -1.398 -0.49399999
5.6500001 -1.812 -0.56
5.6589999 -1.795 -0.56
5.6690001 -1.779 -0.56099999
5.9070001 -1.527 -0.958
5.7210002 -1.9579999 -0.83499998
5.9310002 -1.513 -0.96100003
5.6919999 -1.908 -0.82800001
5.6880002 -1.897 -0.82700002
5.6810002 -1.875 -0.824
5.6550002 -1.847 -0.81900001
5.6719999 -1.8329999 -0.82099998
5.9510002 -1.508 -0.96399999
5.723 -1.809 -0.82800001
5.7639999 -1.802 -0.83399999
5.763 -1.7920001 -0.833
5.75 -1.768 -0.82999998
5.7550001 -1.75 -0.82999998
5.7189999 -1.72 -0.82300001
5.9229999 -1.706 -1.25
5.8239999 -1.638 -1.225
5.902 -1.729 -0.252
5.8189998 -1.597 -1.221
5.8860002 -1.694 -0.25
5.9099998 -1.6799999 -0.25099999
5.9000001 -1.658 -0.25
5.8369999 -1.533 -1.221
5.862 -1.52 -1.226
5.9460001 -1.522 -1.244
5.79 -1.535 -0.82599998
5.8060002 -1.529 -0.82800001
5.835 -1.517 -0.83200002
5.848 -1.501 -0.833
5.8790002 -1.489 -0.838
5.8800001 -1.47 -0.83700001
5.77 -1.423 -0.81800002
6.4689999 -1.551 -1.0549999
6.0250001 -1.47 -0.255
6.04 -1.4529999 -0.25600001
5.6399999 -1.625 -0.55199999
5.6399999 -1.605 -0.551
5.6490002 -1.589 -0.551
6.119 -1.905 -1.252
5.651 -1.58 -0.551
5.5510001 -1.7539999 -1.071
6.2659998 -1.489 -0.67000002
5.5599999 -1.738 -1.072
5.5869999 -1.763 -1.404
6.0960002 -1.86 -0.94999999
6.2470002 -1.475 -0.667
5.6090002 -1.734 -1.081
6.2379999 -1.452 -0.66500002
5.6269999 -1.72 -1.084
6.171 -1.416 -0.65499997
5.6300001 -1.711 -1.084
5.3410001 -1.798 -1.183
5.645 -1.791 -1.249
5.927 -1.818 -1.313
5.9770002 -1.813 -1.324
5.9920001 -1.7970001 -1.326
5.8829999 -1.7539999 -1.299
6.0570002 -1.785 -1.34
5.9089999 -1.722 -1.303
5.8969998 -1.698 -1.298
5.9169998 -1.684 -1.302
5.7690001 -1.623 -1.265
5.7529998 -1.599 -1.26
5.756 -1.59 -1.26
5.7589998 -1.571 -1.26
5.7639999 -1.553 -1.26
5.7670002 -1.535 -1.2589999
5.79 -1.522 -1.2640001
5.836 -1.5140001 -1.274
5.7410002 -1.48 -1.25
6.9640002 -1.5700001 -1.53
6.8540001 -1.523 -1.503
5.7080002 -1.946 -0.65499997
5.6900001 -1.92 -0.65200001
5.7140002 -1.918 -0.65499997
5.7080002 -1.896 -0.653
5.7049999 -1.875 -0.65200001
5.652 -1.8380001 -0.64300001
5.6859999 -1.829 -0.64700001
5.698 -1.813 -0.648
5.6999998 -1.794 -0.648
5.678 -1.778 -0.64399999
5.6760001 -1.757 -0.64300001
5.6830001 -1.74 -0.64300001
5.6830001 -1.72 -0.64200002
5.6700001 -1.697 -0.639
5.6880002 -1.683 -0.64099997
5.678 -1.661 -0.639
5.6789999 -1.651 -0.639
5.7010002 -1.638 -0.64099997
5.6799998 -1.613 -0.63800001
5.6830001 -1.594 -0.63700002
5.7049999 -1.581 -0.63999999
5.7140002 -1.564 -0.63999999
5.7259998 -1.548 -0.64099997
5.7420001 -1.543 -0.64300001
5.7659998 -1.53 -0.64600003
5.7859998 -1.516 -0.648
5.8140001 -1.5039999 -0.65200001
5.8530002 -1.495 -0.65700001
6.3410001 -1.6 -0.72799999
6.3979998 -1.594 -0.73500001
6.4390001 -1.5829999 -0.74000001
6.3959999 -1.561 -0.73400003
6.3200002 -1.521 -0.722
6.2940001 -1.494 -0.71700001
6.1529999 -1.809 -1.192
6.2909999 -1.452 -0.71600002
6.3709998 -1.449 -0.727
6.303 -1.425 -0.67299998
5.934 -1.824 -0.22499999
5.9359999 -1.804 -0.22499999
5.9320002 -1.7819999 -0.22400001
5.9109998 -1.756 -0.222
5.9050002 -1.734 -0.221
5.9000001 -1.722 -0.221
5.8649998 -1.692 -0.21799999
5.8800001 -1.676 -0.219
5.881 -1.6569999 -0.21799999
5.8829999 -1.637 -0.21799999
5.8899999 -1.619 -0.21799999
5.8930001 -1.6 -0.21799999
5.8860002 -1.5880001 -0.21699999
5.8990002 -1.572 -0.21799999
5.9070001 -1.554 -0.21799999
5.9060001 -1.534 -0.21799999
5.934 -1.522 -0.219
5.9559999 -1.507 -0.221
5.9569998 -1.488 -0.22
6.006 -1.48 -0.22400001
5.993 -1.467 -0.222
5.2950001 -1.803 -1.219
5.3169999 -1.7920001 -1.223
5.605 -1.803 -1.289
5.6620002 -1.802 -1.302
5.5949998 -1.761 -1.284
5.6999998 -1.784 -1.3099999
5.8889999 -1.824 -1.3559999
5.9429998 -1.821 -1.368
5.8579998 -1.774 -1.345
5.9510002 -1.7819999 -1.367
6.007 -1.779 -1.38
5.9580002 -1.744 -1.3660001
5.8979998 -1.716 -1.35
5.75 -1.652 -1.312
5.723 -1.625 -1.304
5.7360001 -1.609 -1.306
5.7480001 -1.5930001 -1.308
5.7519999 -1.575 -1.307
5.777 -1.562 -1.312
5.7810001 -1.554 -1.313
5.816 -1.544 -1.3200001
5.8210001 -1.525 -1.3200001
5.7810001 -1.495 -1.309
5.9130001 -1.51 -1.341
6.0939999 -1.5190001 -0.93400002
6.9559999 -1.573 -1.5880001
5.7930002 -1.6720001 -0.83200002
5.8520002 -1.477 -0.39199999
5.8959999 -1.4680001 -0.396
5.6609998 -1.885 -0.56400001
5.8959999 -1.448 -0.396
5.2350001 -1.803 -1.485
5.9260001 -1.446 -0.39899999
5.7119999 -1.804 -0.53600001
5.9219999 -1.624 -0.25099999
6.0549998 -1.854 -1.2359999
5.5450001 -1.7589999 -1.3329999
6.0510001 -1.832 -1.234
6.0380001 -1.807 -1.229
6.0580001 -1.8279999 -0.94199997
5.8530002 -1.745 -0.90499997
5.7690001 -1.7 -0.889
5.7509999 -1.684 -0.88499999
5.8449998 -1.692 -0.90100002
5.9060001 -1.6900001 -0.91100001
5.7800002 -1.6339999 -0.88800001
5.7849998 -1.6160001 -0.88800001
5.7789998 -1.594 -0.88599998
5.8039999 -1.592 -0.88999999
5.8109999 -1.574 -0.88999999
5.822 -1.557 -0.89099997
5.8299999 -1.54 -0.89200002
5.862 -1.529 -0.89600003
5.868 -1.511 -0.89700001
5.9039998 -1.5 -0.90200001
5.901 -1.48 -0.90100002
6.006 -1.7359999 -1.219
5.9569998 -1.702 -1.206
5.237 -1.7819999 -1.262
5.5650001 -1.804 -1.342
5.546 -1.779 -1.335
5.6999998 -1.653 -0.52899998
5.5689998 -1.748 -1.3380001
5.8150001 -1.706 -1.456
5.5500002 -1.675 -1.3279999
5.6799998 -1.694 -1.3609999
5.842 -1.722 -1.402
5.7750001 -1.683 -1.383
5.6279998 -1.631 -1.344
5.6199999 -1.61 -1.341
5.618 -1.59 -1.339
5.6170001 -1.571 -1.337
5.6440001 -1.559 -1.3430001
5.6700001 -1.5470001 -1.348
5.7270002 -1.553 -1.362
5.7410002 -1.5369999 -1.365
5.723 -1.513 -1.359
5.717 -1.752 -0.34900001
5.7090001 -1.729 -0.347
5.711 -1.71 -0.347
5.7220001 -1.694 -0.34799999
5.723 -1.6849999 -0.347
5.7179999 -1.664 -0.347
5.7259998 -1.646 -0.347
5.7189999 -1.625 -0.34599999
5.7220001 -1.582 -0.52999997
5.737 -1.591 -0.34599999
5.7459998 -1.574 -0.347
5.7480001 -1.5650001 -0.347
5.7690001 -1.551 -0.34799999
5.7709999 -1.533 -0.34799999
5.7399998 -1.568 -0.53100002
5.8080001 -1.5039999 -0.35100001
5.8340001 -1.4910001 -0.35299999
5.8499999 -1.485 -0.354
5.8769999 -1.473 -0.35600001
5.8979998 -1.4579999 -0.35699999
5.7490001 -1.5599999 -0.53200001
5.9299998 -1.427 -0.36000001
5.7670002 -1.827 -0.35499999
5.9640002 -1.395 -0.36199999
5.777 -1.548 -0.53500003
5.8870001 -1.744 -0.25099999
5.7459998 -1.8 -0.35299999
5.7870002 -1.5319999 -0.53600001
5.7309999 -1.775 -0.35100001
5.8130002 -1.5190001 -0.53799999
6.1409998 -1.601 -1.466
5.8309999 -1.5039999 -0.54000002
6.7470002 -1.543 -1.61
5.7839999 -1.473 -0.53399998
5.2179999 -1.8 -1.316
5.5050001 -1.823 -1.388
5.5159998 -1.807 -1.39
5.513 -1.7970001 -1.388
5.5110002 -1.777 -1.386
5.5279999 -1.763 -1.3890001
5.7220001 -1.607 -0.345
5.5110002 -1.72 -1.382
5.4959998 -1.696 -1.376
5.5139999 -1.673 -1.3789999
5.9699998 -1.773 -1.5
6.0009999 -1.756 -0.184
5.7140002 -1.6569999 -1.428
5.994 -1.714 -0.183
6.0089998 -1.697 -0.184
5.6820002 -1.58 -1.414
5.6589999 -1.554 -1.406
5.974 -1.637 -0.18099999
5.724 -1.534 -1.4220001
5.744 -1.52 -1.426
6.2979999 -1.637 -1.573
6.3649998 -1.633 -1.589
6.0510001 -1.566 -0.184
6.1020002 -1.559 -0.18700001
6.1170001 -1.5420001 -0.18799999
6.1240001 -1.523 -0.18799999
5.7930002 -1.6210001 -0.31600001
5.3909998 -1.7920001 -1.143
5.921 -1.493 -0.51499999
5.8169999 -1.608 -0.31799999
5.8280001 -1.592 -0.31799999
5.7839999 -1.517 -0.34900001
5.823 -1.571 -0.317
5.8249998 -1.551 -0.317
6.0149999 -1.618 -0.109
5.849 -1.528 -0.31900001
6.027 -1.581 -0.11
6.0339999 -1.562 -0.11
5.9039998 -1.4400001 -0.35800001
6.066 -1.55 -0.111
5.9089999 -1.465 -0.322
5.9559999 -1.413 -0.36199999
6.1220002 -1.523 -0.113
5.9229999 -1.425 -0.398
6.092 -1.61 0.003
5.572 -1.807 -1.469
5.5710001 -1.7869999 -1.467
5.6960001 -1.7869999 -1.499
6.0650001 -1.808 -1.597
5.8569999 -1.707 -1.535
5.7030001 -1.915 -0.68099999
5.9770002 -1.418 -0.403
5.3720002 -1.8049999 -1.14
6.1100001 -1.868 -1.0089999
6.112 -1.848 -1.008
6.0890002 -1.8200001 -1.003
6.0650001 -1.803 -0.99800003
5.9920001 -1.761 -0.98299998
5.8270001 -1.694 -0.95200002
6.1030002 -1.752 -1.002
6.1409998 -1.742 -1.008
6.125 -1.717 -1.0039999
5.8779998 -1.628 -0.95700002
5.8769999 -1.618 -0.95700002
5.8590002 -1.594 -0.95200002
5.8699999 -1.577 -0.95300001
5.8800001 -1.5599999 -0.954
5.895 -1.544 -0.95599997
5.6529999 -1.7539999 -0.55800003
5.6570001 -1.7359999 -0.55800003
5.6550002 -1.716 -0.55699998
5.6350002 -1.7 -0.55400002
5.6399999 -1.682 -0.55400002
5.632 -1.661 -0.55199999
5.6430001 -1.645 -0.55299997
6.599 -1.5599999 -1.0779999
6.665 -1.564 -1.09
6.6810002 -1.546 -1.092
6.7259998 -1.534 -1.099
5.6669998 -1.5650001 -0.55299997
5.6550002 -1.543 -0.551
5.6789999 -1.53 -0.55299997
5.7179999 -1.522 -0.55800003
5.7119999 -1.501 -0.55599999
5.7589998 -1.494 -0.56199998
5.7610002 -1.485 -0.56199998
6.0830002 -1.488 -0.602
6.0900002 -1.469 -0.602
6.092 -1.46 -0.602
6.0949998 -1.4400001 -0.602
6.119 -1.426 -0.60399997
6.1020002 -1.401 -0.602
6.1739998 -1.398 -0.61000001
5.1849999 -1.8 -1.4170001
5.2129998 -1.791 -1.424
5.928 -1.886 -1.622
5.7470002 -1.699 -1.559
5.9200001 -1.5930001 -0.25
5.9720001 -1.874 -1.271
5.2360001 -1.7869999 -1.524
5.9520001 -1.582 -0.252
6.039 -1.875 -1.286
6.0879998 -1.5880001 0.003
5.9819999 -1.4960001 -0.96899998
5.704 -1.62 -0.495
5.9569998 -1.563 -0.252
5.6750002 -1.9349999 -0.67799997
5.6950002 -1.932 -0.68000001
5.7329998 -1.714 -1.615
5.6750002 -1.886 -0.67500001
5.6810002 -1.868 -0.67500001
5.6789999 -1.848 -0.67400002
5.6789999 -1.8279999 -0.67299998
5.6869998 -1.811 -0.67400002
5.6929998 -1.803 -0.67400002
5.6630001 -1.774 -0.66900003
5.6739998 -1.758 -0.67000002
5.6739998 -1.738 -0.66900003
5.6529999 -1.7130001 -0.66500002
5.6620002 -1.696 -0.66500002
5.652 -1.674 -0.66299999
5.6669998 -1.659 -0.66399997
5.652 -1.645 -0.662
5.6609998 -1.628 -0.662
5.6739998 -1.613 -0.66299999
5.6659999 -1.591 -0.66100001
5.678 -1.575 -0.66299999
5.7080002 -1.564 -0.66600001
5.7150002 -1.5470001 -0.667
5.7329998 -1.5420001 -0.66900003
5.7410002 -1.525 -0.67000002
5.7729998 -1.5140001 -0.67400002
5.7950001 -1.5 -0.676
5.6690001 -1.449 -0.65700001
5.868 -1.479 -0.68599999
6.3870001 -1.597 -0.764
6.4439998 -1.59 -0.77100003
6.4180002 -1.562 -0.76700002
6.4089999 -1.539 -0.76499999
6.401 -1.515 -0.76300001
6.3769999 -1.489 -0.75800002
6.4039998 -1.474 -0.76200002
6.4320002 -1.459 -0.76499999
6.618 -1.359 -0.78899997
6.5419998 -1.3329999 -0.77700001
5.9200001 -1.688 -0.145
5.9400001 -1.674 -0.146
5.9640002 -1.67 -0.147
5.9159999 -1.636 -0.14399999
5.9569998 -1.628 -0.146
5.9580002 -1.608 -0.146
5.9850001 -1.595 -0.147
6.026 -1.586 -0.149
6.0580001 -1.574 -0.15099999
6.0700002 -1.567 -0.152
6.052 -1.5420001 -0.15000001
5.993 -1.5319999 -0.25400001
6.0619998 -1.5039999 -0.15000001
6.0430002 -1.803 -1.2819999
5.7140002 -1.725 -0.53399998
5.7199998 -1.8609999 -0.505
5.7049999 -1.836 -0.50199997
5.698 -1.814 -0.5
5.7010002 -1.795 -0.5
5.7090001 -1.778 -0.5
5.71 -1.768 -0.5
5.6939998 -1.744 -0.498
5.6919999 -1.724 -0.49700001
5.6960001 -1.705 -0.49599999
5.7030001 -1.688 -0.49700001
5.7059999 -1.669 -0.49599999
5.7020001 -1.648 -0.495
5.7030001 -1.6390001 -0.495
5.7360001 -1.705 -0.82499999
5.6999998 -1.79 -0.42300001
5.7210002 -1.777 -0.42500001
5.7069998 -1.753 -0.42300001
5.6999998 -1.7309999 -0.42199999
5.7030001 -1.7130001 -0.421
5.6999998 -1.702 -0.421
5.6939998 -1.681 -0.419
5.6989999 -1.663 -0.419
5.6869998 -1.64 -0.41800001
5.7150002 -1.706 -0.53299999
6.0159998 -1.497 -0.52600002
5.7119999 -1.589 -0.419
6.0370002 -1.472 -0.528
6.0409999 -1.4529999 -0.528
5.7319999 -1.546 -0.419
6.072 -1.42 -0.52999997
6.0799999 -1.402 -0.53100002
6.0840001 -1.383 -0.53100002
5.836 -1.4960001 -0.42899999
5.8940001 -1.501 -0.435
5.9200001 -1.488 -0.43700001
5.9219999 -1.469 -0.43700001
5.9419999 -1.454 -0.43799999
5.9590001 -1.439 -0.44
5.973 -1.4220001 -0.44100001
5.9949999 -1.408 -0.44299999
6.007 -1.391 -0.44299999
5.9260001 -1.362 -0.43399999
5.9809999 -1.499 -0.25299999
6.1240001 -1.691 -0.041000001
6.0689998 -1.526 -0.15099999
5.7160001 -1.727 -0.60600001
5.8039999 -1.6849999 -0.83399999
5.717 -1.7079999 -0.60600001
6.1069999 -1.624 -0.039999999
6.1040001 -1.603 -0.039000001
6.105 -1.5829999 -0.039000001
6.0739999 -1.8789999 -1.05
6.0619998 -1.865 -1.0470001
6.0599999 -1.844 -1.046
6.04 -1.817 -1.041
6.2259998 -1.852 -1.076
6.0489998 -1.778 -1.04
6.1100001 -1.765 -1.051
6.0339999 -1.722 -1.035
5.9369998 -1.6339999 -1.013
5.9359999 -1.613 -1.012
5.9390001 -1.594 -1.012
5.934 -1.5829999 -1.01
5.9369998 -1.564 -1.01
5.967 -1.552 -1.015
5.9619999 -1.53 -1.013
5.9970002 -1.5190001 -1.0190001
5.9910002 -1.498 -1.016
6.0050001 -1.4809999 -1.018
6.0510001 -1.483 -1.027
6.4109998 -1.551 -1.094
6.7610002 -1.548 -1.1569999
5.8540001 -1.821 -0.29100001
5.3369999 -1.786 -1.62
5.3889999 -1.794 -1.636
5.7410002 -1.568 -0.60399997
5.8119998 -1.768 -0.28600001
5.7030001 -1.627 -0.81599998
5.79 -1.751 -0.28400001
5.7820001 -1.729 -0.28299999
5.7820001 -1.709 -0.28200001
5.9310002 -1.6059999 -0.25099999
5.776 -1.688 -0.28099999
5.9819999 -1.38 -0.403
6.1199999 -1.566 -0.039999999
5.7849998 -1.671 -0.28200001
5.8109999 -1.658 -0.28400001
6.0289998 -1.734 -0.112
5.9559999 -1.771 -1.151
5.7059999 -1.6160001 -0.52899998
6.0370002 -1.915 -1.288
5.9499998 -1.686 -1.489
5.7199998 -1.61 -1.426
5.5669999 -1.699 -1.334
6.1529999 -1.564 -0.041000001
5.9990001 -1.684 -0.183
6.0 -1.664 -0.183
5.6820002 -1.541 -1.411
5.7189999 -1.601 -0.52999997
5.7680001 -1.551 -0.5
5.9850001 -1.62 -0.18099999
5.2179999 -1.799 -1.52
5.8660002 -1.526 -0.285
5.8130002 -1.701 -1.177
5.7360001 -1.614 -0.461
5.8509998 -1.512 -0.28400001
5.7309999 -1.577 -0.81800002
5.7399998 -1.8430001 -0.42899999
5.8610001 -1.495 -0.28400001
5.816 -1.566 -1.219
5.8200002 -1.548 -1.219
5.7059999 -1.812 -0.42500001
5.8870001 -1.482 -0.28600001
6.3000002 -1.475 -0.71799999
5.6939998 -1.598 -0.493
5.8400002 -1.538 -0.28299999
5.8940001 -1.464 -0.28600001
5.7030001 -1.581 -0.493
5.9159999 -1.45 -0.287
5.7319999 -1.5700001 -0.49599999
5.9109998 -1.855 -0.331
5.8400002 -1.814 -0.32499999
5.8340001 -1.7920001 -0.324
5.7779999 -1.765 -0.31799999
5.7989998 -1.751 -0.31999999
5.7969999 -1.7309999 -0.31900001
5.7870002 -1.7079999 -0.31799999
5.7880001 -1.689 -0.317
5.7919998 -1.67 -0.317
5.7779999 -1.646 -0.315
5.7859998 -1.6390001 -0.31600001
5.9860001 -1.701 -0.109
5.9970002 -1.684 -0.109
6.006 -1.666 -0.11
6.0349998 -1.653 -0.111
6.0110002 -1.627 -0.109
5.835 -1.535 -0.31799999
6.0029998 -1.594 -0.109
5.8670001 -1.513 -0.31999999
5.8969998 -1.501 -0.322
5.9099998 -1.485 -0.32300001
5.7839999 -1.516 -0.5
5.948 -1.454 -0.32499999
5.9489999 -1.4349999 -0.32499999
5.98 -1.432 -0.32800001
6.0120001 -1.42 -0.33000001
6.02 -1.402 -0.33000001
5.8249998 -1.507 -0.505
5.8340001 -1.49 -0.505
5.698 -1.624 -0.41800001
5.7069998 -1.607 -0.419
6.0320001 -1.4809999 -0.528
5.7179999 -1.581 -0.419
5.7329998 -1.566 -0.41999999
6.0539999 -1.436 -0.52899998
5.7519999 -1.5319999 -0.421
5.7800002 -1.52 -0.42399999
5.8660002 -1.607 -1.182
5.9320002 -1.798 -0.255
5.8039999 -1.507 -0.426
5.428 -1.752 -1.0470001
6.0630002 -1.867 -1.104
6.0650001 -1.847 -1.103
6.052 -1.822 -1.099
5.9580002 -1.774 -1.079
5.7849998 -1.714 -1.044
5.8530002 -1.7130001 -1.056
6.053 -1.75 -1.095
6.1129999 -1.747 -1.1059999
5.9489999 -1.61 -1.069
5.9369998 -1.587 -1.0650001
5.9180002 -1.562 -1.0599999
5.921 -1.543 -1.0599999
5.9200001 -1.523 -1.059
5.928 -1.505 -1.0599999
5.9400001 -1.498 -1.062
5.9619999 -1.484 -1.0650001
5.8540001 -1.438 -1.043
6.1370001 -1.4859999 -1.098
6.8540001 -1.531 -1.235
5.8559999 -1.539 -0.472
6.007 -1.507 -0.48699999
6.0479999 -1.704 -0.075999998
6.0349998 -1.6799999 -0.075000003
6.0419998 -1.661 -0.075000003
6.053 -1.6440001 -0.075000003
6.0650001 -1.637 -0.075999998
6.0560002 -1.614 -0.075000003
6.046 -1.591 -0.074000001
6.0510001 -1.572 -0.074000001
6.0619998 -1.554 -0.075000003
6.0799999 -1.539 -0.075000003
6.1739998 -1.5420001 -0.079000004
6.0910001 -1.536 -0.112
5.7350001 -1.551 -0.49599999
5.6890001 -1.9960001 -0.72600001
5.6820002 -1.974 -0.72399998
5.6880002 -1.956 -0.72399998
5.6919999 -1.937 -0.72399998
5.6799998 -1.913 -0.72000003
5.6669998 -1.8890001 -0.71700001
5.6620002 -1.867 -0.71600002
5.651 -1.844 -0.713
5.6609998 -1.8380001 -0.71399999
5.6630001 -1.819 -0.71399999
5.6560001 -1.796 -0.71100003
5.6570001 -1.778 -0.71100003
5.6479998 -1.755 -0.708
5.6440001 -1.734 -0.70700002
5.638 -1.7130001 -0.70499998
5.6409998 -1.704 -0.70499998
5.6370001 -1.684 -0.704
5.6420002 -1.666 -0.704
5.651 -1.649 -0.704
5.652 -1.63 -0.704
5.6570001 -1.613 -0.704
5.6620002 -1.604 -0.704
5.6799998 -1.59 -0.70599997
5.6739998 -1.569 -0.704
5.6919999 -1.5549999 -0.70599997
5.71 -1.541 -0.708
5.724 -1.525 -0.70999998
5.7420001 -1.511 -0.71200001
5.7680001 -1.499 -0.71499997
5.79 -1.495 -0.71799999
6.0510001 -1.543 -0.759
5.8720002 -1.477 -0.73000002
6.4200001 -1.499 -0.81199998
6.428 -1.48 -0.81300002
6.6659999 -1.5140001 -0.85000002
6.362 -1.423 -0.801
6.5170002 -1.3609999 -0.82200003
6.0339999 -1.474 -0.48899999
5.7069998 -1.933 -0.83099997
5.744 -1.914 -0.61799997
5.7480001 -1.895 -0.61699998
5.744 -1.874 -0.616
5.7360001 -1.8609999 -0.61400002
5.7399998 -1.8430001 -0.61400002
5.7340002 -1.821 -0.61299998
5.7309999 -1.8 -0.611
5.7270002 -1.779 -0.61000001
5.7270002 -1.7589999 -0.60900003
5.7210002 -1.738 -0.60699999
6.085 -1.659 -0.039000001
6.0960002 -1.642 -0.039000001
5.7129998 -1.687 -0.60500002
5.711 -1.6670001 -0.60299999
5.7259998 -1.651 -0.60500002
5.7270002 -1.632 -0.60399997
5.7319999 -1.614 -0.60399997
5.7350001 -1.605 -0.60399997
5.7420001 -1.5880001 -0.60500002
5.829 -1.793 -0.28799999
5.7529998 -1.552 -0.60500002
5.7849998 -1.541 -0.60900003
5.7839999 -1.522 -0.60799998
5.8200002 -1.511 -0.61199999
5.8239999 -1.503 -0.61199999
5.8800001 -1.497 -0.61900002
5.6469998 -1.697 -1.086
5.8039999 -1.647 -0.28299999
5.8049998 -1.627 -0.28200001
5.8280001 -1.692 -1.122
5.7030001 -1.636 -1.094
5.8590002 -1.612 -1.123
5.8280001 -1.584 -1.1160001
5.8270001 -1.564 -1.114
5.8299999 -1.545 -1.114
5.8410001 -1.528 -1.115
5.8340001 -1.516 -1.113
5.8699999 -1.507 -1.12
5.835 -1.478 -1.112
5.8759999 -1.469 -1.119
5.9260001 -1.433 -0.28799999
5.948 -1.418 -0.289
5.9619999 -1.4119999 -0.28999999
6.0079999 -1.844 -1.277
6.0469999 -1.835 -1.285
5.4499998 -1.794 -1.108
6.0 -1.859 -0.26100001
5.9450002 -1.822 -0.257
5.895 -1.7180001 -1.245
6.0019999 -1.4809999 -0.972
5.9130001 -1.772 -0.25299999
5.2810001 -1.8150001 -1.3940001
5.724 -1.682 -0.82200003
6.0029998 -1.7359999 -0.184
5.4619999 -1.744 -1.053
5.8179998 -1.6160001 -1.222
5.9920001 -1.552 -0.25400001
5.8940001 -1.716 -0.25099999
5.809 -1.584 -1.2180001
5.7210002 -1.613 -0.81800002
5.7210002 -1.594 -0.81800002
5.9130001 -1.641 -0.25
5.7420001 -1.561 -0.81900001
5.7529998 -1.544 -0.81999999
