# .PCD v0.7 - Point Cloud Data file format
VERSION 0.7
FIELDS x y z
SIZE 4 4 4
TYPE F F F
COUNT 1 1 1
WIDTH 764
HEIGHT 1
VIEWPOINT 0 0 0 1 0 0 0
POINTS 764
DATA ascii
31.157 37.415001 1.317
31.827 40.367001 1.3789999
31.025 39.476002 1.352
30.806999 39.453999 1.348
30.716 39.592999 1.35
30.636 39.745998 1.351
30.423 39.728001 1.348
30.191 39.681999 1.344
30.021 39.716999 1.342
30.056 39.894001 1.346
30.368 40.573002 1.363
30.143 41.073002 1.369
30.09 41.272999 1.372
29.962 41.369999 1.372
29.92 41.448002 1.373
29.826 41.594002 1.374
29.756001 41.771999 1.376
29.667999 41.926998 1.378
29.577 42.077999 1.38
29.483 42.226002 1.381
29.379999 42.361 1.382
29.197001 43.102001 1.3940001
29.011 43.412998 1.398
28.906 43.550999 1.399
28.573999 43.792999 1.399
28.462 43.923 1.4
28.377001 44.094002 1.403
27.695 45.028999 1.4119999
27.125 44.73 1.4
27.5 45.672001 1.423
27.469 45.784 1.424
26.341 47.029999 1.436
26.034 46.826 1.429
26.035 47.708 1.446
25.937 47.884998 1.449
25.811001 48.012001 1.45
25.68 48.131001 1.451
25.556999 48.264999 1.452
25.378 48.293999 1.451
25.201 48.323002 1.45
25.136999 48.386002 1.45
25.014999 48.522999 1.452
24.874001 49.004002 1.46
24.473 49.362 1.4630001
24.202 49.397999 1.461
24.028999 49.437 1.46
23.892 49.549999 1.461
23.719999 49.592999 1.46
30.973 38.991001 1.577
30.76 39.480999 1.584
30.684999 39.640999 1.586
30.559999 39.737 1.586
30.117001 41.265999 1.612
29.959 41.320999 1.6109999
29.865 41.465 1.613
29.695 41.778999 1.617
29.591 41.911999 1.618
29.511999 42.080002 1.6210001
29.499001 42.201 1.623
29.216999 42.648998 1.6289999
29.120001 42.794998 1.631
29.049 42.980999 1.6339999
28.91 43.212002 1.637
28.334 44.126999 1.65
27.266001 44.591 1.645
27.496 45.286999 1.664
27.525999 45.659 1.674
27.179001 46.058998 1.678
27.021999 46.290001 1.681
25.67 46.453999 1.6670001
25.909 47.59 1.698
25.794001 47.735001 1.7
25.666 47.858002 1.701
25.537001 47.977001 1.702
25.41 48.103001 1.7029999
25.354 48.18 1.705
25.225 48.301998 1.706
25.094 48.422001 1.707
24.961 48.537998 1.7079999
24.874001 48.743999 1.712
24.825001 49.027 1.719
24.693001 49.148998 1.72
24.636999 49.230999 1.721
24.448 49.237999 1.719
24.263 49.254002 1.717
24.115999 49.346001 1.7180001
23.983999 49.470001 1.719
23.837 49.561001 1.72
31.204 38.237999 1.878
30.969 38.688 1.885
30.504999 39.747002 1.903
29.650999 39.525002 1.88
28.573999 43.689999 1.974
27.486 44.740002 1.985
27.198 44.583 1.975
26.441 45.733002 1.995
25.586 46.417 2.0009999
25.614 47.882999 2.0450001
25.556 47.955002 2.0469999
25.438999 48.098 2.049
25.298 48.198002 2.05
25.176001 48.334999 2.052
25.035999 48.436001 2.053
24.906 48.557999 2.0539999
24.783001 48.695 2.0569999
24.65 48.812 2.0580001
24.601 48.905998 2.0599999
24.466999 49.022999 2.062
24.337999 49.148998 2.0639999
24.198 49.256001 2.0650001
24.059999 49.366001 2.066
23.927999 49.490002 2.0680001
31.642 36.842999 -1.35
31.579 37.005001 -1.353
31.507 37.154999 -1.355
31.521 37.290001 -1.358
31.441999 37.435001 -1.36
31.371 37.589001 -1.363
31.312 37.759998 -1.3660001
31.243999 37.918999 -1.368
31.177 38.081001 -1.3710001
31.113001 38.247002 -1.374
31.112 38.368 -1.377
31.049999 38.539001 -1.38
30.968 38.685001 -1.382
30.917999 38.873001 -1.385
30.853001 39.042 -1.388
30.764999 39.181999 -1.39
29.059 42.792 -1.451
28.976 42.959999 -1.454
28.875 43.102001 -1.456
28.771999 43.241001 -1.4579999
28.673 43.387001 -1.46
28.586 43.553001 -1.4630001
28.486 43.699001 -1.465
28.455999 43.801998 -1.467
28.368999 43.970001 -1.47
28.275999 44.130001 -1.473
27.843 45.153 -1.494
27.733 45.291 -1.495
27.612 45.414001 -1.497
27.495001 45.542999 -1.498
27.372 45.664001 -1.5
27.215 45.889999 -1.503
27.101 46.027 -1.505
26.981001 46.153 -1.507
26.864 46.285999 -1.5089999
26.749001 46.424 -1.511
26.632 46.557999 -1.512
26.516001 46.695999 -1.5140001
26.474001 46.792999 -1.516
26.355 46.924999 -1.518
26.238001 47.063 -1.52
26.132 47.220001 -1.523
26.007999 47.348 -1.525
25.886 47.478001 -1.526
25.768 47.616001 -1.529
25.719999 47.707001 -1.53
25.591999 47.827999 -1.5319999
25.469 47.959999 -1.534
25.333 48.068001 -1.535
25.197001 48.174999 -1.536
25.063999 48.290001 -1.5369999
31.618999 37.084999 -1.066
31.625 37.209999 -1.069
31.539 37.346001 -1.0700001
31.497 37.535 -1.073
31.419001 37.681999 -1.075
31.349001 37.839001 -1.077
31.294001 38.015999 -1.079
31.232 38.183998 -1.082
31.215 38.285999 -1.0829999
31.141001 38.441002 -1.085
31.093 38.629002 -1.0880001
31.013 38.779999 -1.09
30.947001 38.946999 -1.0930001
30.884001 39.119999 -1.095
30.812 39.280998 -1.097
30.801001 39.394001 -1.099
30.75 39.584999 -1.102
30.681999 39.754002 -1.105
30.607 39.916 -1.107
30.518999 40.061001 -1.109
29.264999 42.422001 -1.1390001
29.173 42.575001 -1.141
29.152 42.688 -1.143
29.048 42.825001 -1.145
28.955 42.977001 -1.147
28.862 43.131001 -1.149
28.768999 43.285999 -1.151
28.673 43.437 -1.153
28.580999 43.595001 -1.155
28.551001 43.698002 -1.1569999
28.461 43.862 -1.159
28.365999 44.015999 -1.161
28.277 44.182999 -1.163
27.73 45.342999 -1.181
27.605 45.459 -1.182
27.483999 45.581001 -1.183
27.372 45.719002 -1.1849999
27.327 45.807999 -1.186
27.219 45.953999 -1.188
27.094 46.071999 -1.189
26.985001 46.219002 -1.191
26.862 46.341999 -1.192
26.736 46.460999 -1.193
26.627001 46.609001 -1.1950001
26.584999 46.706001 -1.197
26.473 46.852001 -1.199
26.361 46.998001 -1.201
26.239 47.125999 -1.202
26.125999 47.272999 -1.204
26.003 47.400002 -1.205
25.882999 47.535999 -1.207
25.837 47.630001 -1.2079999
25.715 47.762001 -1.21
25.589001 47.888 -1.211
25.461 48.011002 -1.212
25.330999 48.129002 -1.214
25.200001 48.248001 -1.215
25.099001 48.425999 -1.2180001
25.124001 48.660999 -1.223
31.666 36.981998 -0.81599998
31.615 37.158001 -0.81800002
31.542999 37.310001 -0.81900001
31.486 37.480999 -0.82099998
31.466 37.577 -0.82300001
31.414 37.755001 -0.82499999
31.348 37.917 -0.82599998
31.268999 38.063999 -0.82800001
31.214001 38.242001 -0.82999998
31.121 38.374001 -0.83099997
31.059 38.543999 -0.833
31.073 38.685001 -0.83499998
30.979 38.817001 -0.83600003
30.931 39.007999 -0.83899999
30.868 39.18 -0.84100002
30.794001 39.34 -0.84200001
30.728001 39.511002 -0.84399998
30.653 39.669998 -0.84600002
30.663 39.813 -0.84899998
30.594 39.981998 -0.85100001
30.516001 40.139999 -0.852
30.462999 40.333 -0.85500002
30.378 40.485001 -0.85600001
30.313999 40.665001 -0.85799998
30.252001 40.983002 -0.86299998
30.094 41.039001 -0.86199999
30.035999 41.23 -0.86500001
29.9 41.316002 -0.86400002
29.818001 41.476002 -0.866
29.709999 41.601002 -0.86699998
29.629 41.764 -0.86900002
29.608 41.874001 -0.87
29.521999 42.030998 -0.87199998
29.421 42.168999 -0.87300003
29.330999 42.321999 -0.875
29.232 42.464001 -0.87599999
29.141001 42.618 -0.87699997
29.049 42.77 -0.87900001
28.947001 42.91 -0.88
28.934 43.035999 -0.88200003
28.837999 43.185001 -0.884
28.733 43.321999 -0.88499999
28.646999 43.488998 -0.88700002
28.545 43.632 -0.88800001
28.461 43.801998 -0.88999999
28.364 43.955002 -0.89200002
28.341999 44.071999 -0.89399999
28.222 44.191002 -0.89399999
27.684999 45.366001 -0.90899998
27.569 45.494999 -0.91000003
27.459 45.638 -0.912
27.349001 45.778999 -0.91299999
27.091999 46.002998 -0.91399997
27.059999 46.115002 -0.91600001
26.944 46.248001 -0.917
26.819 46.368999 -0.91799998
26.709 46.514999 -0.92000002
26.587 46.640999 -0.921
26.476999 46.787998 -0.92199999
26.360001 46.924999 -0.92299998
26.320999 47.028999 -0.92500001
26.205999 47.171001 -0.926
26.084 47.300999 -0.92799997
25.968 47.442001 -0.92900002
25.844999 47.570999 -0.93000001
25.725 47.706001 -0.93099999
25.594 47.824001 -0.93199998
25.542 47.905998 -0.93300003
25.414 48.028999 -0.93400002
25.284 48.148998 -0.935
25.177 48.313 -0.93699998
25.086 48.508999 -0.94
25.049 48.813999 -0.94499999
24.923 48.945999 -0.94700003
24.790001 49.064999 -0.94800001
31.594 36.942001 -0.47600001
31.551001 37.127998 -0.477
31.468 37.266998 -0.47799999
31.472 37.390999 -0.47999999
31.365 37.501999 -0.47999999
31.282 37.641998 -0.48100001
31.212999 37.799999 -0.48199999
31.150999 37.967999 -0.48300001
31.073999 38.118 -0.484
31.01 38.284 -0.48500001
31.004999 38.401001 -0.486
30.940001 38.569 -0.48800001
30.871 38.730999 -0.48899999
30.802 38.894001 -0.49000001
30.737 39.064999 -0.491
30.667 39.229 -0.49200001
30.596001 39.390999 -0.49399999
30.596001 39.52 -0.495
30.584999 39.763 -0.498
30.527 39.946999 -0.49900001
30.454 40.112 -0.5
30.386 40.285 -0.50199997
30.319 40.459999 -0.50300002
30.243999 40.625999 -0.50400001
30.181999 40.943001 -0.50700003
30.039 41.018002 -0.50700003
29.997999 41.234001 -0.509
29.855 41.310001 -0.509
29.759001 41.451 -0.50999999
29.666 41.596001 -0.51099998
29.649 41.710999 -0.51200002
29.552999 41.853001 -0.51300001
29.462 42.005001 -0.514
29.349001 42.123001 -0.514
29.231001 42.237 -0.514
29.132999 42.380001 -0.51499999
29.035 42.521999 -0.51599997
29.017 42.639999 -0.51700002
28.924999 42.792999 -0.51800001
28.83 42.943001 -0.51899999
28.735001 43.092999 -0.52100003
28.638 43.242001 -0.52100003
28.548 43.402 -0.523
28.458 43.562 -0.52399999
28.429001 43.667 -0.52499998
28.371 43.880001 -0.52700001
28.287001 44.053001 -0.528
28.184 44.196999 -0.52899998
27.747999 45.217999 -0.53799999
27.639 45.360001 -0.53899997
27.517 45.480999 -0.54000002
27.364 45.549999 -0.53899997
27.243999 45.674999 -0.54000002
27.125 45.801998 -0.54100001
27.08 45.890999 -0.54100001
26.969 46.033001 -0.542
26.854 46.167 -0.54299998
26.736 46.299999 -0.54400003
26.620001 46.433998 -0.54500002
26.504 46.570999 -0.546
26.413 46.751999 -0.54699999
26.379999 46.865002 -0.54799998
26.264999 47.007 -0.54900002
26.152 47.152 -0.55000001
26.025999 47.273998 -0.551
25.871 47.342999 -0.551
25.740999 47.459999 -0.551
25.631001 47.612 -0.55199999
25.573 47.683998 -0.55299997
25.455 47.825001 -0.55400002
25.323999 47.941002 -0.55400002
25.195 48.062 -0.55500001
25.080999 48.210999 -0.55599999
25.000999 48.43 -0.55800003
24.981001 48.766998 -0.56300002
24.938999 48.874001 -0.56400001
24.805 48.991001 -0.56400001
24.683001 49.131001 -0.565
24.545 49.243 -0.56599998
24.406 49.352001 -0.56599998
24.271 49.470001 -0.56699997
24.045 49.400002 -0.565
23.973 49.448002 -0.565
23.818001 49.525002 -0.565
23.646 49.564999 -0.56400001
23.535999 49.737 -0.56599998
23.410999 49.877998 -0.56699997
31.660999 36.860001 -0.177
31.608999 37.034 -0.178
31.610001 37.153 -0.17900001
31.535 37.300999 -0.17900001
31.468 37.459999 -0.18000001
31.589001 37.845001 -0.183
31.528 38.014 -0.183
31.464001 38.18 -0.184
31.400999 38.348999 -0.185
31.393 38.460999 -0.186
31.277 38.566002 -0.186
31.256001 38.789001 -0.18700001
31.198 38.966 -0.18799999
31.136 39.140999 -0.18799999
31.093 39.339001 -0.189
30.996 39.471001 -0.19
31.02 39.630001 -0.191
30.871 39.695 -0.191
30.667 39.688999 -0.19
30.598 39.858002 -0.19
30.527 40.026001 -0.191
30.452999 40.189999 -0.192
30.396999 40.377998 -0.193
30.389999 40.500999 -0.193
30.173 41.011002 -0.19599999
30.073999 41.147999 -0.19599999
29.99 41.303001 -0.197
29.867001 41.407001 -0.197
29.841 41.508999 -0.197
29.743 41.647999 -0.198
29.666 41.817001 -0.198
29.575001 41.966999 -0.199
29.490999 42.127998 -0.2
29.513 42.442001 -0.20200001
29.422001 42.597 -0.20200001
29.406 42.717999 -0.20299999
29.306999 42.861 -0.20299999
29.216 43.016998 -0.204
29.114 43.159 -0.205
29.028999 43.325001 -0.205
28.929001 43.470001 -0.206
28.837999 43.630001 -0.206
28.813999 43.743 -0.207
28.690001 43.854 -0.207
28.5 43.862999 -0.206
28.396 44.006001 -0.207
28.295 44.152 -0.208
28.188 44.292 -0.208
27.875 45.198002 -0.213
27.763 45.333 -0.213
27.646999 45.464001 -0.214
27.575001 45.668999 -0.215
27.940001 46.437 -0.221
27.827999 46.581001 -0.222
27.392 46.512001 -0.22
27.452999 46.953999 -0.223
27.360001 47.132999 -0.22400001
26.798 46.841 -0.22
26.629 46.716 -0.21799999
26.513 46.853001 -0.219
26.388 46.976002 -0.219
26.268 47.108002 -0.219
26.149 47.243 -0.22
26.039 47.395 -0.22
26.306999 48.240002 -0.227
26.263 48.341 -0.228
26.139 48.473999 -0.228
26.017 48.612999 -0.229
25.909 48.778999 -0.23
25.521 48.416 -0.226
25.292 48.348999 -0.22400001
25.106001 48.362 -0.22400001
25.111 48.557999 -0.22499999
25.035 48.785999 -0.226
24.913 48.926998 -0.227
24.789 49.063999 -0.227
24.655001 49.181 -0.228
24.386 49.417 -0.229
24.318001 49.474998 -0.229
24.087 49.396999 -0.227
23.940001 49.490002 -0.228
23.795 49.587002 -0.228
23.671 49.728001 -0.228
23.542999 49.862 -0.229
31.739 36.872002 0.131
31.666 37.021 0.131
31.628 37.214001 0.131
31.559999 37.370998 0.131
31.490999 37.528 0.131
32.587002 39.084 0.12800001
32.535999 39.273998 0.127
32.441002 39.41 0.127
32.354 39.43 0.127
32.375999 39.710999 0.127
31.347 38.695 0.12899999
31.261 38.838001 0.12899999
32.131001 40.178001 0.127
32.105 40.404999 0.127
32.027 40.568001 0.126
31.950001 40.601002 0.126
31.579 40.390999 0.127
30.893 39.769001 0.12800001
30.681 39.754002 0.12899999
30.607 39.916 0.12899999
30.549999 40.102001 0.12800001
30.459 40.243999 0.12800001
30.457001 40.373001 0.12800001
30.412001 40.578999 0.12800001
30.299 40.693001 0.12800001
30.174 41.062 0.12800001
30.079 41.202999 0.127
30.021 41.396 0.127
29.941 41.422001 0.127
29.846001 41.564999 0.127
29.756001 41.716 0.127
29.669001 41.873001 0.127
29.591 42.041 0.127
29.497 42.188999 0.127
29.528999 42.518002 0.126
29.504999 42.626999 0.126
29.416 42.785999 0.126
29.316 42.926998 0.126
29.226999 43.087002 0.126
29.138 43.249001 0.126
29.039 43.395 0.126
28.941999 43.546001 0.125
28.913 43.651001 0.125
28.819 43.806999 0.125
28.705 43.933998 0.125
28.532 43.970001 0.125
28.403 44.073002 0.125
28.302 44.221001 0.125
28.198 44.366001 0.125
28.163 44.464001 0.125
27.878 45.264 0.124
27.754 45.380001 0.124
27.652 45.535999 0.124
27.652 45.696999 0.124
27.952 46.522999 0.122
27.844999 46.675999 0.122
27.274 46.379002 0.123
27.450001 47.015999 0.122
27.348 47.181 0.122
27.295 47.261002 0.122
26.882999 46.886002 0.123
26.653999 46.826 0.123
26.506001 46.91 0.123
26.381001 47.033001 0.123
26.264999 47.173 0.123
26.149 47.313 0.123
26.115 47.428001 0.123
26.391001 48.286999 0.121
26.283001 48.451 0.121
26.132 48.536999 0.121
26.004999 48.666 0.121
25.907 48.852001 0.121
25.614 48.667999 0.121
25.306 48.452 0.122
25.193001 48.418999 0.122
25.094999 48.604 0.122
25.033001 48.859001 0.121
24.903999 48.987 0.121
24.771999 49.108002 0.121
24.653 49.257 0.121
24.507 49.353001 0.121
24.455999 49.443001 0.121
24.313999 49.548 0.121
24.094999 49.494999 0.121
23.945999 49.583 0.121
23.780001 49.638 0.121
23.652 49.77 0.121
23.528 49.912998 0.121
31.771999 36.666 0.36000001
31.695 36.810001 0.36000001
31.646999 36.987999 0.36000001
31.577999 37.144001 0.36000001
31.499001 37.286999 0.361
32.555 39.154999 0.36700001
32.396 39.214001 0.36700001
32.395 39.464001 0.368
31.395 38.493999 0.36300001
31.195999 38.495998 0.36300001
32.09 39.853001 0.368
32.113998 40.139999 0.36899999
32.109001 40.264 0.36899999
32.027 40.421001 0.36899999
31.823 40.424 0.36899999
30.986 39.616001 0.36500001
30.747 39.567001 0.36500001
30.636999 39.681999 0.36500001
30.566999 39.849998 0.36500001
30.490999 40.008999 0.36500001
30.489 40.138 0.366
30.400999 40.283001 0.366
30.358 40.490002 0.366
30.087999 40.928001 0.36700001
30.059 41.159 0.36700001
29.983999 41.192001 0.36700001
29.888 41.333 0.368
29.806999 41.494999 0.368
29.704 41.625999 0.368
29.628 41.797001 0.368
29.548 41.962002 0.36899999
29.523001 42.208 0.36899999
29.551001 42.389 0.37
29.466999 42.553001 0.37
29.377001 42.709 0.37
29.274 42.847 0.37
29.094 43.162998 0.37099999
28.990999 43.303001 0.37099999
28.968 43.416 0.37099999
28.888 43.591999 0.37200001
28.775999 43.721001 0.37200001
28.6 43.752998 0.37200001
28.466 43.847 0.37200001
28.375 44.008999 0.37200001
28.268 44.146 0.37200001
28.242001 44.259998 0.37200001
27.841 45.18 0.37400001
27.724001 45.307999 0.37400001
27.684 45.403 0.37400001
27.379 46.198002 0.37599999
27.267 46.34 0.37599999
27.424999 46.945 0.37799999
27.402 47.075001 0.37900001
27.056 46.82 0.377
26.782 46.681999 0.37599999
26.59 46.688 0.37599999
26.462 46.804001 0.37599999
26.334999 46.924 0.37599999
26.212 47.049999 0.377
26.184 47.173 0.377
26.169001 47.497002 0.37799999
26.367001 48.214001 0.38
26.219999 48.306 0.38
26.113001 48.470001 0.38
25.981001 48.589001 0.38
25.521 48.276001 0.37900001
25.291 48.208 0.37799999
25.167999 48.341999 0.37900001
25.112 48.605 0.37900001
25.013 48.789001 0.38
24.879999 48.905998 0.38
24.745001 49.021999 0.38
24.697001 49.118 0.38
24.419001 49.337002 0.38
24.212 49.306999 0.38
24.066 49.401001 0.38
23.899 49.452999 0.38
23.728001 49.494999 0.38
23.628 49.685001 0.38
31.629 38.085999 0.70700002
31.546 38.23 0.708
31.500999 38.421001 0.70899999
31.398001 38.541 0.70999998
31.316 38.688 0.70999998
31.259001 38.867001 0.71100003
31.237 38.964001 0.71200001
31.181 39.146999 0.713
31.115 39.317001 0.71399999
31.051001 39.490002 0.71499997
30.982 39.658001 0.71600002
30.783001 39.659 0.71399999
30.621 39.708 0.71399999
30.461 39.629002 0.71200001
30.302999 39.68 0.71200001
30.323999 39.967999 0.71399999
30.445999 40.391998 0.71799999
30.393 40.587002 0.72000003
30.191999 40.985001 0.722
30.146 41.193001 0.72299999
30.014 41.284 0.72299999
29.909 41.411999 0.72299999
29.822001 41.566002 0.72399998
29.731001 41.716999 0.72500002
29.648001 41.876999 0.72600001
29.555 42.025002 0.72600001
29.577999 42.200001 0.72799999
29.573999 42.476002 0.73000002
29.48 42.625999 0.73100001
29.389 42.782001 0.73199999
29.291 42.928001 0.73199999
28.802999 43.820999 0.73699999
27.912001 46.497002 0.755
27.448999 46.383999 0.75199997
27.261999 46.398998 0.75099999
27.52 47.007999 0.75800002
27.413 47.165001 0.75800002
27.167999 47.083 0.75599998
26.809 46.799999 0.75199997
26.610001 46.792 0.75099999
26.474001 46.896 0.75099999
26.347 47.015999 0.75199997
26.304001 47.112 0.75199997
26.198999 47.272999 0.75300002
26.115999 47.473999 0.755
26.355 48.266998 0.76300001
26.240999 48.419998 0.764
26.121 48.562 0.764
25.971001 48.648998 0.764
25.973 48.838001 0.76599997
25.528999 48.367001 0.75999999
25.295 48.291 0.75800002
25.139999 48.363998 0.75800002
25.021999 48.507999 0.759
24.917 48.681 0.75999999
24.847 48.923 0.76200002
24.827 49.074001 0.76300001
24.518999 49.229 0.76300001
24.329 49.236 0.76200002
24.184999 49.334 0.76200002
24.028999 49.408001 0.76200002
23.907 49.551998 0.76300001
23.802 49.533001 0.76200002
23.695 49.710999 0.764
31.556999 37.162998 0.949
32.036999 39.834999 0.98500001
31.983 40.025002 0.98699999
31.907 40.188 0.98799998
31.848 40.372002 0.99000001
31.76 40.522999 0.991
30.981001 39.657001 0.97299999
30.768 39.640999 0.97100002
30.636999 39.729 0.97100002
30.382 39.654999 0.96799999
30.235001 39.722 0.96700001
30.198 39.932999 0.96899998
30.391001 40.451 0.977
30.393999 40.587002 0.97899997
30.139999 41.049 0.98199999
30.1 41.265999 0.98500001
29.954 41.338001 0.98400003
29.853001 41.472 0.98500001
29.823 41.568001 0.986
29.749001 41.741001 0.98699999
29.653 41.882999 0.98799998
29.573999 42.051998 0.99000001
29.513 42.245998 0.99199998
29.509001 42.523998 0.995
29.431 42.696999 0.99699998
29.400999 42.798 0.99800003
29.305 42.945999 0.99900001
29.209999 43.097 1.0
29.122999 43.259998 1.001
29.021999 43.404999 1.002
28.926001 43.556 1.003
28.827 43.705002 1.0039999
28.73 43.856998 1.005
28.639999 43.868999 1.005
27.507999 45.981998 1.023
27.360001 46.228001 1.025
27.235001 46.348 1.025
27.115 46.478001 1.026
26.74 46.842999 1.028
26.618 46.799999 1.027
26.49 46.917999 1.027
26.371 47.050999 1.028
26.243999 47.172001 1.029
26.129 47.313999 1.03
26.083 47.584 1.033
25.993999 47.776001 1.035
25.951 47.875999 1.036
25.820999 47.995998 1.0369999
25.701 48.133999 1.038
25.570999 48.255001 1.038
25.448999 48.391998 1.039
25.236 48.354 1.0369999
25.08 48.425999 1.0369999
25.014999 48.487 1.038
24.893 48.624001 1.039
24.764999 48.751999 1.04
24.632999 48.872002 1.04
24.500999 48.992001 1.041
24.368999 49.113998 1.0420001
24.240999 49.242001 1.043
24.103001 49.352001 1.043
24.046 49.432999 1.044
23.910999 49.549999 1.045
23.75 49.613998 1.044
23.643999 49.794998 1.046
