# .PCD v0.7 - Point Cloud Data file format
VERSION 0.7
FIELDS x y z
SIZE 4 4 4
TYPE F F F
COUNT 1 1 1
WIDTH 103
HEIGHT 1
VIEWPOINT 0 0 0 1 0 0 0
POINTS 103
DATA ascii
-19.728001 25.264 -1.222
-19.778 25.164 -1.22
-19.790001 25.017 -1.215
-19.728001 24.858 -1.2079999
-20.035 25.083 -1.224
-20.076 24.973 -1.222
-20.184 24.947001 -1.224
-20.135 24.726999 -1.215
-20.191999 24.638 -1.2130001
-20.339001 24.659 -1.2180001
-16.511999 25.657 -1.522
-16.537001 24.41 -1.464
-16.521999 24.306999 -1.459
-16.643999 24.320999 -1.4630001
-16.65 24.166 -1.456
-16.625 23.968 -1.446
-16.733999 23.964001 -1.45
-16.898001 24.038 -1.4579999
-16.718 23.624001 -1.433
-16.789 23.566 -1.433
-17.013 23.802 -1.451
-17.174 23.868 -1.46
-17.355 23.961 -1.47
-17.476999 23.971001 -1.474
-18.153 24.174 -1.506
-17.541 26.558001 -1.023
-17.969 26.837 -1.041
-18.125999 26.707001 -1.04
-19.52 25.611 -1.0369999
-20.129 24.834999 -1.028
-20.313999 24.903 -1.035
-16.679001 24.308001 -1.6210001
-16.830999 24.448 -1.633
-16.66 24.038 -1.6059999
-16.723 23.966999 -1.605
-16.701 23.778 -1.595
-16.868 23.855 -1.605
-17.013 23.9 -1.612
-17.322001 24.172001 -1.637
-17.311001 24.077 -1.632
-17.396 24.035 -1.633
-17.473 23.983999 -1.633
-17.589001 23.983 -1.637
-17.790001 23.785 -1.635
-17.771 23.681999 -1.6289999
-16.74 26.028 -1.35
-16.754999 25.961 -1.348
-16.719999 25.729 -1.337
-16.635 25.424 -1.322
-16.768999 25.454 -1.327
-16.424999 24.764 -1.289
-16.687 24.987 -1.3049999
-16.757999 24.923 -1.304
-16.764999 24.766001 -1.298
-16.664 24.534 -1.286
-16.674 24.384001 -1.28
-16.728001 24.298 -1.278
-16.704 24.101 -1.2690001
-16.781 24.049999 -1.2690001
-17.063999 24.292999 -1.2869999
-17.042 24.18 -1.2819999
-17.108 24.113001 -1.281
-17.216 24.105 -1.284
-17.153 23.858 -1.272
-17.351999 23.975 -1.2819999
-17.319 23.771999 -1.273
-17.459 23.806 -1.279
-18.035 24.51 -1.324
-18.358 24.302 -1.326
-19.290001 25.368 -1.397
-18.905001 24.702 -1.358
-17.028999 26.921 -1.2130001
-16.993999 26.771999 -1.207
-17.02 26.628 -1.202
-17.104 26.573999 -1.202
-17.048 26.306 -1.191
-17.124001 26.242001 -1.1900001
-16.934 25.771999 -1.168
-17.143999 25.914 -1.178
-17.268999 25.926001 -1.182
-16.659 24.924 -1.13
-17.059 25.35 -1.155
-17.378 25.650999 -1.174
-17.485001 25.634001 -1.177
-17.106001 24.91 -1.14
-16.938999 24.500999 -1.1210001
-17.372999 24.961 -1.149
-17.5 25.059999 -1.156
-17.323 24.639999 -1.136
-17.360001 24.528999 -1.133
-17.441999 24.481001 -1.133
-17.516001 24.422001 -1.133
-17.538 24.291 -1.1289999
-18.149 24.973 -1.169
-18.594 25.417999 -1.197
-18.768 25.237 -1.1950001
-18.863001 25.198999 -1.196
-19.025 25.25 -1.2029999
-19.021999 25.082001 -1.196
-19.419001 25.523001 -1.223
-19.374001 25.298 -1.214
-19.518 25.320999 -1.2180001
-19.671 25.354 -1.224
