# .PCD v0.7 - Point Cloud Data file format
VERSION 0.7
FIELDS x y z
SIZE 4 4 4
TYPE F F F
COUNT 1 1 1
WIDTH 150
HEIGHT 1
VIEWPOINT 0 0 0 1 0 0 0
POINTS 150
DATA ascii
-13.544 18.323 -1.3660001
-13.642 18.334999 -1.37
-13.685 18.271999 -1.369
-13.788 18.290001 -1.374
-13.845 18.246 -1.374
-15.969 20.983 -1.612
-16.094999 21.011999 -1.619
-16.155001 20.954 -1.618
-16.135 20.792 -1.609
-15.962 20.436001 -1.582
-15.937 20.271 -1.572
-15.969 20.181999 -1.569
-15.968 20.115 -1.5650001
-16.677 19.764999 -0.94700003
-14.673 18.243 -1.409
-14.645 18.091 -1.399
-14.529 17.833 -1.381
-14.522 17.709999 -1.374
-14.608 17.701 -1.377
-14.444 17.391001 -1.353
-14.625 17.552999 -1.37
-14.62 17.434999 -1.363
-14.165 16.136999 -1.126
-14.464 19.701 -1.179
-14.276 19.316 -1.155
-14.131 18.993999 -1.136
-13.748 18.177999 -1.086
-16.089001 21.142 -1.299
-16.120001 21.045 -1.296
-16.311001 21.157 -1.308
-15.964 20.572001 -1.2690001
-16.191999 20.731001 -1.284
-16.183001 20.652 -1.281
-15.887 20.143 -1.248
-15.425 19.43 -1.2
-15.702 19.653 -1.219
-15.674 19.490999 -1.211
-15.754 19.465 -1.2130001
-15.621 19.177 -1.196
-15.659 19.162001 -1.196
-14.747 17.927999 -1.11
-14.777 17.85 -1.107
-14.837 17.808001 -1.108
-14.875 17.74 -1.1059999
-14.921 17.681999 -1.105
-15.115 17.798 -1.117
-15.117 17.743999 -1.115
-14.589 18.256001 -1.406
-15.222 17.641001 -1.114
-15.17 17.469 -1.105
-15.314 17.524 -1.113
-14.465 16.445999 -1.035
-14.175 15.863 -1.0
-13.927 15.968 -1.108
-14.132 19.931 -1.599
-13.439 18.582001 -1.489
-13.483 18.521 -1.487
-14.59 19.709999 -1.6059999
-13.854 18.355 -1.493
-13.892 18.285999 -1.4910001
-15.223 19.711 -1.6339999
-15.161 19.504 -1.619
-15.102 19.302999 -1.605
-15.085 19.157 -1.595
-15.14 19.103001 -1.595
-15.219 19.079 -1.597
-15.659 19.441 -1.638
-14.636 18.056999 -1.511
-14.563 17.851999 -1.4960001
-14.43 17.577 -1.474
-14.481 17.527 -1.474
-14.591 17.547001 -1.48
-13.788 16.531 -1.385
-14.589 19.639999 -1.311
-13.827 18.315001 -1.217
-15.578 20.495001 -1.39
-15.651 20.457001 -1.391
-15.764 20.471001 -1.396
-15.894 20.507 -1.402
-15.982 20.486 -1.405
-15.93 20.354 -1.396
-15.975 20.281 -1.3940001
-15.821 19.955 -1.373
-15.61 19.563999 -1.346
-15.737 19.596001 -1.352
-14.661 18.143 -1.24
-14.601 17.952999 -1.229
-14.515 17.733999 -1.215
-14.563 17.736 -1.217
-14.499 17.545 -1.205
-14.451 17.375 -1.1950001
-14.46 17.275999 -1.191
-14.475 17.184 -1.187
-14.702 17.341999 -1.204
-14.7 17.23 -1.198
-14.6 17.059 -1.186
-13.894 16.132999 -1.114
-14.383 19.427999 -1.01
-14.221 19.083 -0.991
-14.033 18.709999 -0.97100002
-16.337999 21.215 -1.141
-16.385 21.07 -1.137
-16.181 20.674999 -1.115
-16.304001 20.697001 -1.119
-16.320999 20.584999 -1.1160001
-16.471001 20.641001 -1.122
-15.646 19.483 -1.051
-16.482 20.455999 -1.1160001
-15.708 19.372999 -1.049
-15.797 19.358 -1.051
-16.506001 20.096001 -1.102
-16.355 19.785999 -1.085
-15.773 18.961 -1.035
-14.83 17.716 -0.95700002
-14.946 17.742001 -0.96100003
-14.943 17.681 -0.95899999
-15.015 17.653999 -0.95999998
-15.927 18.606001 -1.026
-17.021999 19.756001 -1.1059999
-16.072001 18.537001 -1.028
-16.330999 18.716999 -1.044
-17.108999 19.483 -1.098
-16.618 18.746 -1.054
-16.347 18.325001 -1.03
-16.569 18.455999 -1.0420001
-15.764 17.233 -0.96899998
-15.586 16.985001 -0.954
-15.573 16.864 -0.949
-15.732 16.929001 -0.95700002
-15.684 16.771 -0.949
-15.721 16.705999 -0.94800001
-15.76 16.538 -0.94400001
-16.41 17.056999 -0.98500001
-16.552 16.989 -0.98699999
-16.031 16.149 -0.93900001
-16.187 16.254999 -0.94800001
-13.396 18.497999 -1.631
-13.881 18.247 -1.638
-14.331 17.716 -1.627
-14.197 17.493999 -1.607
-14.193 17.377001 -1.599
-14.269 17.358 -1.602
-15.009 17.504999 -1.101
-13.49 16.294001 -1.618
-13.419 16.105 -1.601
-14.127 19.822001 -1.473
-13.291 18.400999 -1.36
-13.384 18.469 -1.367
-13.46 18.451 -1.369
-13.516 18.405001 -1.369
