# .PCD v0.7 - Point Cloud Data file format
VERSION 0.7
FIELDS x y z
SIZE 4 4 4
TYPE F F F
COUNT 1 1 1
WIDTH 95
HEIGHT 1
VIEWPOINT 0 0 0 1 0 0 0
POINTS 95
DATA ascii
-0.077 -10.289 -1.117
-0.045000002 -10.298 -1.118
-0.012 -10.329 -1.122
0.02 -10.335 -1.123
0.052999999 -10.341 -1.123
0.082999997 -10.037 -1.085
0.123 -10.159 -1.24
0.131 -10.061 -1.0880001
0.186 -10.11 -1.233
0.19400001 -10.084 -1.091
0.234 -10.113 -1.234
0.266 -10.132 -1.237
0.29899999 -10.175 -1.243
0.098999999 -10.033 -1.084
0.155 -10.129 -1.2359999
0.163 -10.078 -1.09
0.21799999 -10.11 -1.233
0.23100001 -10.305 -1.119
0.07 -10.093 -1.04
0.102 -10.081 -1.038
0.133 -10.061 -1.036
0.16500001 -10.098 -1.041
0.198 -10.121 -1.044
0.21600001 -10.218 -1.056
-0.115 -10.335 -1.312
0.15800001 -10.152 -1.285
0.189 -10.128 -1.2819999
0.221 -10.114 -1.28
0.237 -10.115 -1.28
0.26899999 -10.134 -1.283
0.30199999 -10.175 -1.289
-0.046 -10.106 -0.85500002
-0.014 -10.08 -0.852
0.017999999 -10.072 -0.85100001
0.153 -10.07 -0.97899997
0.059 -10.129 -0.986
0.090000004 -10.065 -0.97899997
0.122 -10.071 -0.97899997
0.048999999 -10.066 -0.85000002
0.081 -10.064 -0.85000002
0.112 -9.9659996 -0.83999997
0.145 -10.107 -0.85500002
-0.113 -10.304 -1.381
0.12800001 -10.168 -1.36
0.16 -10.134 -1.355
0.191 -10.115 -1.352
0.223 -10.117 -1.353
0.255 -10.124 -1.354
0.28799999 -10.155 -1.359
-0.0080000004 -10.183 -0.93000001
0.024 -10.147 -0.926
0.056000002 -10.147 -0.926
0.088 -10.153 -0.926
0.12 -10.173 -0.92900002
0.15000001 -10.069 -0.917
-0.105 -10.26 -1.605
0.13500001 -10.133 -1.584
0.167 -10.129 -1.5829999
0.183 -10.139 -1.585
0.213 -10.065 -1.573
0.37799999 -10.248 -1.604
0.38999999 -10.123 -1.5829999
0.42699999 -10.263 -1.607
-0.125 -10.187 -1.492
0.115 -10.206 -1.4960001
0.147 -10.165 -1.489
0.178 -10.142 -1.4859999
0.20999999 -10.142 -1.4859999
0.245 -10.257 -1.5039999
0.278 -10.265 -1.505
0.29300001 -10.254 -1.5039999
0.32600001 -10.257 -1.5039999
0.35800001 -10.26 -1.505
0.38999999 -10.259 -1.505
0.433 -10.498 -1.543
0.186 -10.137 -0.98699999
-0.057999998 -10.161 -1.171
-0.041999999 -10.133 -1.168
-0.0099999998 -10.123 -1.166
0.022 -10.092 -1.1619999
0.052999999 -10.09 -1.1619999
0.085000001 -10.079 -1.16
0.118 -10.156 -1.171
0.15000001 -10.166 -1.1720001
0.16500001 -10.146 -1.169
0.198 -10.175 -1.173
0.23 -10.176 -1.174
0.264 -10.265 -1.186
0.296 -10.24 -1.183
0.25999999 -10.181 -1.103
-0.02 -10.094 -0.79100001
0.012 -10.068 -0.78899997
0.043000001 -10.066 -0.78799999
0.075000003 -10.052 -0.787
0.090999998 -10.064 -0.78799999
