# .PCD v0.7 - Point Cloud Data file format
VERSION 0.7
FIELDS x y z
SIZE 4 4 4
TYPE F F F
COUNT 1 1 1
WIDTH 1245
HEIGHT 1
VIEWPOINT 0 0 0 1 0 0 0
POINTS 1245
DATA ascii
7.5900002 9.0869999 -0.963
6.454 16.405001 -1.098
7.5879998 9.1429996 -0.96700001
7.0 13.286 -0.72600001
7.5799999 9.191 -0.97000003
6.3920002 16.375999 -1.3099999
7.5689998 9.2379999 -0.97299999
7.631 9.2449999 -1.272
7.3709998 11.286 -1.207
7.5619998 9.3190002 -0.97799999
6.4190001 16.468 -1.101
7.5430002 9.3549995 -0.98000002
7.6059999 9.1780005 -1.489
7.5570002 9.4329996 -0.98699999
7.552 9.4879999 -0.991
6.6269999 14.577 -0.60100001
6.5289998 14.481 -0.59399998
7.3629999 11.353 -1.212
7.5869999 9.5530005 -1.298
7.6090002 9.0360003 -1.183
7.5250001 9.5780001 -0.99599999
7.618 8.8039999 -1.015
7.5599999 9.7779999 -0.70899999
7.546 9.6350002 -1.002
7.5349998 9.684 -1.005
6.5689998 15.586 -1.253
7.52 9.7279997 -1.007
7.6220002 8.6920004 -1.082
7.3649998 11.394 -1.216
7.572 9.8170004 -1.323
7.5079999 9.8400002 -1.015
7.6440001 8.802 -1.0930001
7.5139999 9.9130001 -1.022
7.553 9.9200001 -1.331
7.4959998 9.9540005 -1.024
6.5970001 15.409 -1.549
7.5050001 9.9969997 -1.028
7.5689998 9.3809996 -1.137
7.6360002 8.9619999 -1.1059999
7.3309999 11.421 -1.216
7.6220002 9.0019999 -1.108
7.5 10.123 -1.0369999
6.6609998 14.646 0.57499999
6.704 14.864 0.57999998
7.4889998 10.175 -1.041
7.5320001 10.189 -1.3559999
7.4860001 10.239 -1.046
7.6209998 9.1459999 -1.1210001
7.474 10.29 -1.049
7.5359998 9.7460003 -1.376
7.6170001 9.1999998 -1.125
7.3319998 11.501 -1.223
7.5139999 10.334 -1.369
7.4619999 10.377 -1.0549999
7.5120001 10.4 -1.376
6.566 15.738 -1.0549999
7.5949998 9.3520002 -1.136
6.5580001 15.858 -1.063
7.4980001 10.52 -1.387
6.5339999 15.941 -1.068
7.5890002 9.4969997 -1.149
7.5760002 9.4490004 -1.143
7.3340001 11.584 -1.2309999
7.6170001 8.6809998 -1.152
6.494 16.134001 -1.08
7.5780001 9.5439997 -1.152
6.473 16.228001 -1.086
7.5679998 9.5930004 -1.155
7.4330001 10.639 -0.69099998
7.4559999 10.501 -1.448
7.5640001 9.651 -1.16
7.6750002 8.6940002 -0.796
7.6259999 8.6660004 -0.79100001
7.5549998 9.3360004 -1.053
7.6069999 8.9239998 -0.80699998
7.592 8.9630003 -0.80900002
7.5570002 9.7049999 -1.164
7.5799999 9.0360003 -0.81300002
7.5809999 9.0950003 -0.81699997
7.573 9.1429996 -0.81999999
7.573 9.2019997 -0.82300001
7.5630002 9.2489996 -0.82599998
7.5500002 9.7589998 -1.169
7.5640001 9.3409996 -0.83200002
7.5619998 9.3990002 -0.83600003
7.5630002 9.46 -0.83999997
7.5630002 9.5209999 -0.84399998
7.54 9.5539999 -0.84500003
7.5339999 9.6090002 -0.84899998
7.527 9.6630001 -0.852
7.651 8.6520004 -1.278
7.619 8.6429996 -1.274
7.6360002 8.7180004 -1.283
7.6230001 8.7580004 -1.286
6.6290002 14.595 -0.509
6.5549998 14.552 -0.50599998
7.6079998 8.9099998 -1.299
7.5029998 10.082 -0.87900001
7.6100001 8.9969997 -1.308
7.598 9.04 -1.311
7.6009998 9.1009998 -1.317
7.4899998 10.334 -0.89600003
7.4840002 10.395 -0.89999998
7.5799999 9.2510004 -1.33
7.487 10.503 -0.90799999
7.559 9.3149996 -1.335
7.4650002 10.613 -0.91399997
7.454 10.668 -0.91799998
7.4460001 10.729 -0.92199999
7.4239998 10.769 -0.92299998
7.4380002 10.863 -0.93099999
7.4359999 10.896 -0.93300003
7.427 10.957 -0.93699998
7.4239998 11.027 -0.94199997
7.4180002 11.093 -0.94599998
7.4039998 11.148 -0.949
7.3940001 11.209 -0.95300001
7.3850002 11.273 -0.95700002
7.395 11.328 -0.96200001
7.3899999 11.398 -0.96700001
7.375 11.454 -0.97000003
7.3579998 11.506 -0.97299999
7.3600001 11.59 -0.97899997
7.349 11.653 -0.98299998
7.3330002 11.71 -0.98699999
7.3189998 11.771 -0.991
7.323 11.818 -0.99400002
7.3080001 11.876 -0.99800003
7.2940001 11.938 -1.002
7.2839999 12.007 -1.006
7.2680001 12.066 -1.01
7.2509999 12.123 -1.013
7.2360001 12.185 -1.017
7.223 12.207 -1.018
7.2270002 12.302 -1.025
7.2119999 12.366 -1.03
7.197 12.43 -1.034
7.1750002 12.482 -1.0369999
7.1719999 12.568 -1.043
7.1430001 12.61 -1.045
7.1550002 12.677 -1.05
7.1420002 12.748 -1.0549999
7.1240001 12.81 -1.059
7.1079998 12.876 -1.063
7.0760002 12.914 -1.0650001
7.085 13.027 -1.074
7.302 11.62 -1.556
7.2800002 11.666 -1.5599999
7.0419998 13.195 -1.085
7.026 13.267 -1.09
7.0170002 13.35 -1.096
6.9949999 13.411 -1.099
6.9850001 13.495 -1.105
6.9720001 13.574 -1.1109999
6.9530001 13.59 -1.1109999
6.9530001 13.696 -1.119
6.9400001 13.778 -1.125
6.9180002 13.842 -1.1289999
6.908 13.932 -1.136
6.8779998 13.982 -1.1390001
6.8610001 14.059 -1.1440001
6.8629999 14.12 -1.149
6.8520002 14.21 -1.155
6.8169999 14.253 -1.1569999
6.7969999 14.327 -1.1619999
6.7979999 14.445 -1.171
6.7779999 14.523 -1.177
6.7639999 14.611 -1.183
7.303 11.843 -1.166
6.6139998 14.587 -1.176
6.5770001 14.626 -1.178
6.6810002 14.986 -1.209
6.6500001 15.043 -1.2130001
6.658 15.19 -1.225
6.6290002 15.254 -1.229
6.573 15.192 -1.222
6.6100001 15.41 -1.24
6.5879998 15.493 -1.2460001
7.322 11.646 -1.2359999
7.3150001 11.716 -1.2410001
7.3000002 11.774 -1.2460001
7.2919998 11.803 -1.248
7.2880001 11.88 -1.2539999
7.2709999 11.935 -1.258
7.2550001 11.993 -1.263
7.2459998 12.064 -1.2690001
7.2360001 12.133 -1.274
7.2049999 12.167 -1.276
7.2160001 12.23 -1.2819999
7.2080002 12.304 -1.288
7.191 12.364 -1.293
7.1700001 12.418 -1.296
7.1550002 12.482 -1.301
7.1430001 12.552 -1.307
7.1259999 12.613 -1.312
7.1269999 12.662 -1.316
7.1220002 12.747 -1.324
7.1030002 12.806 -1.3279999
7.0710001 12.844 -1.33
7.0679998 12.934 -1.3380001
7.0570002 13.01 -1.345
7.0380001 13.072 -1.349
7.0479999 13.141 -1.3559999
7.0289998 13.204 -1.3609999
7.0120001 13.273 -1.367
6.9949999 13.343 -1.372
6.9770002 13.409 -1.377
6.961 13.482 -1.383
6.9330001 13.532 -1.387
6.954 13.624 -1.396
6.9349999 13.694 -1.402
6.9190001 13.769 -1.408
6.902 13.844 -1.414
6.881 13.91 -1.42
6.8649998 13.987 -1.426
6.8460002 14.06 -1.432
6.8530002 14.132 -1.439
6.8280001 14.192 -1.444
6.7950001 14.239 -1.447
6.7919998 14.346 -1.457
6.7800002 14.44 -1.465
6.7600002 14.515 -1.471
6.7389998 14.589 -1.477
6.7140002 14.655 -1.482
6.6360002 14.546 -1.469
6.526 14.425 -1.452
6.6110001 14.734 -1.485
6.6560001 14.96 -1.5089999
6.6539998 15.083 -1.52
6.6329999 15.164 -1.527
6.6090002 15.237 -1.533
6.6170001 15.323 -1.5420001
7.4239998 11.183 -1.289
6.5739999 15.488 -1.556
6.5450001 15.555 -1.561
6.5170002 15.627 -1.567
6.494 15.709 -1.574
6.4699998 15.79 -1.581
7.4060001 11.233 -1.293
6.454 15.966 -1.597
6.4229999 16.035 -1.603
7.5300002 9.6450005 -1.3660001
7.6539998 8.6669998 -1.154
7.4109998 11.318 -1.301
7.6389999 8.7600002 -1.161
7.6360002 8.8120003 -1.165
7.6329999 8.8649998 -1.17
7.6360002 8.8959999 -1.173
7.6269999 8.9429998 -1.176
6.6370001 14.612 0.75199997
6.5570002 14.557 0.74900001
7.6100001 9.0950003 -1.189
7.6020002 9.1429996 -1.192
7.5960002 9.1949997 -1.196
7.6009998 9.2299995 -1.2
7.1030002 12.917 -1.61
7.5890002 9.3339996 -1.209
7.5609999 9.3590002 -1.209
7.5749998 9.4370003 -1.217
7.559 9.4779997 -1.219
7.5599999 9.5410004 -1.225
7.572 9.5869999 -1.23
7.5570002 9.6289997 -1.233
7.5580001 9.6940002 -1.239
7.5469999 9.7419996 -1.243
7.5440001 9.8009996 -1.248
7.5279999 9.8450003 -1.251
7.5289998 9.9090004 -1.257
7.5300002 9.9429998 -1.26
7.526 10.003 -1.266
7.507 10.043 -1.268
7.5409999 9.6890001 -1.3710001
7.5100002 10.179 -1.281
7.362 11.396 -1.536
7.4980001 10.298 -1.2920001
7.5009999 10.336 -1.295
7.4920001 10.392 -1.3
7.4879999 10.455 -1.306
7.4749999 10.506 -1.3099999
7.4679999 10.567 -1.3150001
7.4650002 10.633 -1.321
7.4510002 10.684 -1.325
7.461 10.734 -1.331
7.4260001 10.756 -1.33
7.4400001 10.848 -1.34
7.4349999 10.914 -1.346
7.427 10.977 -1.352
7.4159999 11.035 -1.357
7.4120002 11.104 -1.363
7.4180002 11.15 -1.368
7.415 11.222 -1.375
7.4029999 11.28 -1.38
7.3979998 11.35 -1.386
7.3940001 11.423 -1.393
7.3660002 11.458 -1.395
7.3439999 11.502 -1.398
7.369 11.581 -1.4069999
7.3530002 11.637 -1.4119999
7.348 11.709 -1.418
7.323 11.752 -1.421
7.3119998 11.816 -1.427
7.3039999 11.886 -1.433
7.2810001 11.933 -1.437
7.2930002 11.995 -1.444
7.2800002 12.059 -1.449
7.2670002 12.122 -1.455
7.2459998 12.174 -1.459
7.2179999 12.214 -1.461
7.2179999 12.302 -1.47
7.2069998 12.372 -1.476
7.2069998 12.416 -1.4809999
7.1939998 12.483 -1.487
7.1799998 12.551 -1.493
7.1620002 12.611 -1.498
7.1440001 12.672 -1.503
7.1350002 12.749 -1.511
7.1240001 12.824 -1.518
7.099 12.874 -1.521
7.1040001 12.93 -1.527
7.0869999 12.996 -1.533
7.059 13.041 -1.536
7.0430002 13.11 -1.5420001
7.0279999 13.181 -1.549
7.0089998 13.245 -1.554
6.9860001 13.303 -1.559
6.9889998 13.359 -1.5650001
6.9720001 13.429 -1.571
6.954 13.498 -1.5779999
7.4260001 10.753 -1.0
7.5320001 10.027 -1.191
6.6490002 14.61 -0.41499999
6.6209998 14.609 -0.414
6.7080002 14.925 -0.42699999
7.2129998 12.463 -1.397
6.921 13.87 -1.0420001
7.5229998 9.8559999 -1.387
7.197 12.527 -1.403
7.4039998 11.126 -1.027
7.5110002 10.065 -1.193
6.3860002 16.693001 -1.1160001
7.494 10.092 -1.272
6.2589998 17.083 -1.05
6.9070001 13.952 -1.048
7.507 9.8999996 -1.39
6.2919998 16.981001 -1.3559999
6.3119998 17.062 -1.1390001
7.4980001 10.112 -1.196
7.625 9.0930004 -1.1160001
7.5050001 9.9610004 -1.396
7.6040001 8.8999996 -1.022
7.342 11.444 -1.54
7.5910001 9.1569996 -0.89200002
7.5120001 10.198 -1.205
7.599 9.2869997 -1.205
6.5489998 15.676 -1.2589999
7.4980001 10.018 -1.401
7.5209999 10.245 -1.21
7.6700001 8.7030001 -1.4960001
7.6560001 8.7419996 -1.499
7.658 8.8000002 -1.506
7.6370001 8.8319998 -1.507
7.6500001 8.875 -1.513
7.6370001 8.9169998 -1.517
7.632 8.9680004 -1.522
7.6230001 9.0150003 -1.526
7.6059999 9.0530005 -1.529
7.5970001 9.099 -1.533
7.5949998 9.1549997 -1.539
7.5900002 9.2080002 -1.545
7.5999999 9.2510004 -1.551
6.5079999 15.885 -0.97899997
7.5149999 10.304 -1.215
7.6160002 8.691 -1.006
6.2529998 17.07 -1.585
7.506 10.36 -1.219
7.6690001 8.691 -0.72899997
6.3670001 16.802 -1.123
7.619 8.75 -1.011
7.5799999 9.3900003 -0.76700002
7.5500002 10.108 -0.81099999
7.4959998 10.103 -0.80800003
7.5149999 10.262 -0.81900001
7.5159998 10.331 -0.824
7.4920001 10.365 -0.82499999
7.4850001 10.424 -0.82800001
7.4660001 10.433 -0.82800001
7.461 10.495 -0.83200002
7.4699998 10.577 -0.838
7.4439998 10.612 -0.83899999
7.4569998 10.701 -0.84500003
7.4239998 10.726 -0.84500003
7.4190001 10.79 -0.84899998
7.4320002 10.846 -0.85399997
7.4289999 10.914 -0.85799998
7.4180002 10.972 -0.861
7.415 11.041 -0.866
7.4089999 11.108 -0.87
7.3979998 11.167 -0.87400001
7.3959999 11.24 -0.87800002
7.4089999 11.299 -0.88300002
7.4070001 11.374 -0.88800001
7.4029999 11.445 -0.89200002
7.3800001 11.489 -0.89399999
7.355 11.528 -0.89600003
7.3649998 11.625 -0.903
7.3439999 11.672 -0.90499997
7.3530002 11.728 -0.90899998
7.3400002 11.789 -0.91299999
7.3309999 11.857 -0.917
7.3070002 11.902 -0.91900003
7.2979999 11.97 -0.92400002
7.2820001 12.029 -0.92699999
7.2690001 12.093 -0.93099999
7.2750001 12.147 -0.935
7.2550001 12.199 -0.93800002
7.2199998 12.228 -0.93800002
7.2319999 12.337 -0.94599998
7.2129998 12.392 -0.949
7.2020001 12.463 -0.954
7.1830001 12.522 -0.95700002
7.171 12.591 -0.96100003
7.1750002 12.644 -0.96499997
7.1539998 12.699 -0.96799999
7.1440001 12.776 -0.97299999
7.1259999 12.838 -0.977
7.1040001 12.894 -0.98000002
7.0840001 12.953 -0.98299998
7.0819998 13.047 -0.99000001
7.0830002 13.096 -0.99299997
7.072 13.175 -0.99800003
7.052 13.237 -1.002
7.039 13.314 -1.007
7.0209999 13.38 -1.011
7.0 13.443 -1.015
6.98 13.509 -1.0190001
6.9850001 13.569 -1.023
6.961 13.628 -1.027
6.9569998 13.727 -1.034
6.9390001 13.798 -1.038
6.7059999 14.787 -0.315
6.5739999 14.618 -0.30899999
6.888 14.024 -1.052
6.8930001 14.088 -1.057
6.8720002 14.158 -1.062
6.8569999 14.241 -1.067
6.822 14.282 -1.069
6.7979999 14.349 -1.073
6.8099999 14.491 -1.0829999
6.7810001 14.546 -1.086
6.79 14.626 -1.0930001
6.777 14.719 -1.099
6.612 14.602 -1.085
6.5819998 14.657 -1.0880001
6.6919999 15.027 -1.119
6.6700001 15.104 -1.124
6.6810002 15.193 -1.13
6.6129999 15.299 -1.136
6.6079998 15.42 -1.145
6.5960002 15.527 -1.152
6.5780001 15.621 -1.159
6.553 15.697 -1.164
6.5209999 15.76 -1.1670001
6.5450001 15.888 -1.177
6.5110002 15.947 -1.181
6.4959998 16.055 -1.188
6.474 16.145 -1.194
6.448 16.228001 -1.2
6.4260001 16.320999 -1.206
6.4070001 16.424 -1.2130001
6.408 16.503 -1.219
6.388 16.607 -1.226
6.369 16.712999 -1.234
6.3429999 16.802999 -1.24
6.323 16.909 -1.247
6.3000002 17.011 -1.2539999
6.2620001 17.072001 -1.258
6.277 17.195999 -1.268
6.2529998 17.298 -1.275
6.2189999 17.375999 -1.28
7.4710002 10.59 -1.238
7.5949998 8.9460001 -1.025
6.2360001 17.363001 -0.93900001
7.6469998 9.0860004 -1.402
6.4120002 16.604 -1.11
7.5489998 9.8219995 -1.174
7.4829998 10.643 -1.243
6.3429999 16.899 -1.1289999
7.5929999 9.0 -1.029
6.915 13.733 -1.212
6.2080002 17.458 -0.94400001
7.6259999 9.3859997 -1.432
7.4710002 10.697 -1.247
7.5339999 9.8290005 -0.86400002
7.5370002 9.5869999 -1.073
7.5939999 9.0310001 -1.031
6.921 13.799 -1.2180001
7.5019999 10.214 -0.88800001
7.5949998 9.6239996 -1.454
7.4710002 10.77 -1.2539999
7.5900002 9.0830002 -1.035
7.494 10.413 -1.223
6.362 16.634001 -1.023
7.539 9.9700003 -1.186
7.4320002 10.785 -1.253
6.6680002 14.636 -0.215
6.7140002 14.863 -0.221
7.6079998 8.6540003 -1.002
7.5869999 9.1379995 -1.039
6.27 17.283001 -1.153
7.5630002 9.2860003 -1.05
7.5219998 9.7709999 -0.93199998
7.4439998 10.875 -1.262
6.3759999 16.396999 -1.416
7.5760002 9.1829996 -1.0420001
7.4419999 11.059 -1.279
7.474 10.062 -0.95099998
7.4320002 10.932 -1.266
6.3189998 16.999001 -1.135
7.5679998 9.2329998 -1.046
6.2789998 17.01 -1.466
7.4889998 10.042 -1.03
7.6230001 9.243 -0.68099999
7.6259999 9.276 -0.68300003
7.6160002 9.323 -0.68599999
7.5999999 9.3640003 -0.68699998
7.5929999 9.4160004 -0.69
7.5819998 9.4630003 -0.69199997
7.5749998 9.5150003 -0.69499999
7.573 9.5749998 -0.69800001
7.5749998 9.6090002 -0.69999999
7.566 9.6590004 -0.70300001
7.5650001 9.7209997 -0.70599997
7.4320002 11.006 -1.273
7.5500002 9.8280001 -0.71200001
6.5159998 15.948 -1.28
7.54 10.109 -0.72799999
7.493 10.808 -0.76800001
7.4400001 10.803 -0.76499999
7.3889999 11.527 -0.80699998
7.355 11.554 -0.80800003
7.3379998 11.896 -0.82800001
7.3210001 11.953 -0.83099997
7.3010001 12.005 -0.83399999
7.3010001 12.047 -0.83600003
7.2789998 12.098 -0.83899999
7.2459998 12.129 -0.83999997
7.244 12.212 -0.84500003
7.2259998 12.271 -0.84799999
7.217 12.343 -0.852
7.1989999 12.402 -0.85500002
7.2020001 12.451 -0.85799998
7.198 12.536 -0.86400002
7.178 12.594 -0.86699998
7.1729999 12.677 -0.87199998
7.1609998 12.75 -0.87599999
7.1389999 12.804 -0.87900001
7.119 12.863 -0.88200003
7.1269999 12.926 -0.88599998
7.1220002 13.013 -0.89200002
7.1090002 13.087 -0.89600003
7.0929999 13.156 -0.89999998
7.0770001 13.226 -0.90399998
7.0619998 13.299 -0.90799999
7.0349998 13.35 -0.91000003
7.0300002 13.443 -0.91600001
7.0300002 13.494 -0.92000002
7.0050001 13.55 -0.92199999
6.9840002 13.615 -0.926
6.974 13.7 -0.93099999
6.9619999 13.785 -0.93599999
6.9439998 13.856 -0.94099998
6.928 13.934 -0.94499999
6.934 14.002 -0.94999999
6.9159999 14.077 -0.954
6.8979998 14.153 -0.95899999
6.881 14.232 -0.963
6.849 14.28 -0.96600002
6.8309999 14.358 -0.97000003
6.822 14.457 -0.97600001
6.8270001 14.525 -0.98100001
6.8119998 14.614 -0.98699999
6.7849998 14.675 -0.99000001
6.7579999 14.739 -0.99299997
6.6479998 14.619 -0.98199999
6.711 14.884 -1.002
6.6459999 14.863 -0.99800003
6.704 15.057 -1.013
6.6950002 15.164 -1.02
6.6760001 15.253 -1.025
6.6459999 15.314 -1.029
6.6300001 15.41 -1.035
6.6160002 15.511 -1.041
6.5939999 15.596 -1.046
6.5939999 15.666 -1.051
7.4650002 10.45 -1.061
7.4369998 10.48 -1.062
7.447 10.564 -1.069
7.441 10.626 -1.074
7.4260001 10.678 -1.077
7.4200001 10.74 -1.082
7.4089999 10.796 -1.086
7.4310002 10.866 -1.0930001
7.4089999 10.907 -1.095
7.402 10.972 -1.1
7.401 11.044 -1.1059999
7.395 11.111 -1.1109999
7.382 11.167 -1.115
7.375 11.234 -1.12
7.388 11.292 -1.125
7.3720002 11.345 -1.1289999
7.3649998 11.413 -1.1339999
7.3169999 11.418 -1.132
7.3379998 11.53 -1.142
7.3330002 11.602 -1.148
7.3179998 11.66 -1.152
7.3340001 11.726 -1.158
7.3080001 11.767 -1.16
6.6259999 14.608 -0.131
6.5830002 14.574 -0.13
7.2709999 11.958 -1.174
7.2509999 12.01 -1.178
7.2480001 12.091 -1.184
7.244 12.128 -1.187
7.21 12.158 -1.188
7.2080002 12.242 -1.1950001
7.198 12.313 -1.201
7.1729999 12.359 -1.2029999
7.1760001 12.454 -1.212
7.1469998 12.496 -1.214
7.1589999 12.563 -1.22
7.145 12.63 -1.225
7.1269999 12.691 -1.229
7.118 12.769 -1.2359999
7.1040001 12.84 -1.2410001
7.0609999 12.857 -1.2410001
7.0669999 12.965 -1.25
7.0749998 13.028 -1.256
7.0539999 13.087 -1.26
7.0440001 13.167 -1.267
7.0240002 13.23 -1.271
7.0089998 13.303 -1.277
6.9879999 13.366 -1.281
6.9759998 13.444 -1.2869999
6.9790001 13.503 -1.293
6.9450002 13.541 -1.294
6.948 13.653 -1.304
6.9260001 13.716 -1.309
6.9089999 13.791 -1.3150001
6.8959999 13.873 -1.321
6.8730001 13.937 -1.326
6.875 13.996 -1.331
6.868 14.095 -1.34
6.8439999 14.158 -1.344
6.8169999 14.215 -1.348
6.7930002 14.281 -1.353
6.7940001 14.4 -1.364
6.7740002 14.475 -1.37
6.7789998 14.546 -1.376
6.757 14.619 -1.382
6.6199999 14.562 -1.3710001
6.5300002 14.484 -1.36
6.6729999 14.928 -1.406
6.6529999 15.009 -1.4119999
6.6399999 15.174 -1.427
6.6259999 15.271 -1.4349999
6.6040001 15.352 -1.441
6.5809999 15.434 -1.448
6.5710001 15.546 -1.4579999
6.5440001 15.62 -1.4630001
6.507 15.668 -1.466
6.5250001 15.781 -1.477
6.5089998 15.884 -1.4859999
6.4829998 15.966 -1.492
6.4660001 16.066999 -1.501
6.4450002 16.162001 -1.5089999
6.4250002 16.261 -1.517
6.3940001 16.332001 -1.522
6.395 16.412001 -1.53
6.3850002 16.540001 -1.541
6.3660002 16.645 -1.55
6.3319998 16.714001 -1.5549999
6.3119998 16.820999 -1.5650001
6.2800002 16.896999 -1.5700001
6.257 16.999001 -1.579
7.5469999 9.3599997 -1.339
6.2249999 17.160999 -1.5930001
7.533 9.5190001 -1.067
7.6900001 8.7110004 -1.368
7.652 8.7229996 -1.3660001
7.6810002 8.7849998 -1.375
7.6820002 8.842 -1.381
7.665 8.8780003 -1.383
7.665 8.9350004 -1.3890001
7.6560001 8.9820004 -1.393
7.6500001 9.0310001 -1.397
7.4289999 11.115 -1.283
7.652 9.1210003 -1.406
7.6409998 9.1660004 -1.41
7.6350002 9.217 -1.415
7.632 9.2740002 -1.421
7.625 9.3249998 -1.425
7.3969998 11.375 -1.3049999
7.5879998 9.3990002 -1.4299999
7.5949998 9.4390001 -1.4349999
7.6040001 9.5109997 -1.443
7.5949998 9.5609999 -1.448
7.5279999 9.7989998 -1.381
7.586 9.6739998 -1.459
7.5809999 9.7309999 -1.464
7.5710001 9.7810001 -1.469
7.5770001 9.8219995 -1.474
7.5760002 9.8850002 -1.4809999
7.5700002 9.9420004 -1.4859999
7.5630002 9.9969997 -1.4910001
7.5489998 10.045 -1.495
7.5349998 10.092 -1.499
7.5159998 10.132 -1.502
7.5440001 10.204 -1.512
7.5380001 10.263 -1.518
7.5289998 10.319 -1.524
7.5050001 10.353 -1.525
7.5029998 10.42 -1.533
7.487 10.467 -1.536
7.4860001 10.535 -1.544
7.4710002 10.585 -1.548
7.4720001 10.623 -1.552
7.4619999 10.678 -1.558
7.448 10.731 -1.563
7.4520001 10.808 -1.571
7.5029998 10.236 -1.286
7.552 9.4879999 -1.352
7.6160002 8.8780003 -0.80400002
7.5339999 9.6450005 -1.077
6.6139998 14.581 -0.018999999
6.5450001 14.548 -0.017999999
7.5999999 9.0010004 -0.81199998
6.4720001 15.867 -1.5880001
7.5219998 9.6920004 -1.08
7.5469999 9.9160004 -1.182
7.6589999 8.6829996 -1.576
7.3629999 11.281 -1.524
7.5580001 9.302 -0.829
6.2800002 17.139 -1.1440001
7.5300002 9.7340002 -1.084
7.3660002 11.325 -1.529
7.447 10.695 -0.69499999
7.4250002 10.734 -0.69599998
7.415 10.792 -0.699
7.4039998 10.85 -0.70200002
7.395 10.909 -0.70499998
7.4029999 10.995 -0.70999998
7.3800001 11.035 -0.71100003
7.3920002 11.092 -0.71499997
7.3769999 11.145 -0.71700001
7.3660002 11.204 -0.72000003
7.3600001 11.271 -0.72399998
7.3870001 11.469 -0.73699999
7.3429999 11.479 -0.73500001
7.3390002 11.512 -0.73699999
7.223 12.199 -0.773
7.1069999 12.909 -0.81199998
7.0300002 13.308 -0.833
7.006 13.364 -0.83600003
6.9860001 13.428 -0.83899999
6.9749999 13.51 -0.84399998
6.9499998 13.566 -0.847
6.927 13.627 -0.85000002
6.9060001 13.691 -0.85299999
6.9109998 13.754 -0.85699999
6.8979998 13.836 -0.86199999
6.8790002 13.908 -0.86500001
6.8600001 13.979 -0.86900002
6.8460002 14.062 -0.87400001
6.8330002 14.148 -0.87900001
6.816 14.225 -0.88300002
6.7950001 14.297 -0.88700002
6.8080001 14.383 -0.89300001
6.7950001 14.471 -0.898
6.776 14.55 -0.90200001
6.7529998 14.62 -0.90600002
6.7329998 14.698 -0.91000003
6.6220002 14.577 -0.89899999
6.6700001 14.805 -0.91500002
6.6479998 14.817 -0.91500002
6.678 15.01 -0.92799997
6.6669998 15.113 -0.93400002
6.6479998 15.199 -0.93900001
6.6279998 15.284 -0.94400001
6.6090002 15.373 -0.949
6.5890002 15.457 -0.954
6.5900002 15.528 -0.95899999
6.573 15.624 -0.96399999
6.5430002 15.689 -0.96700001
7.5349998 9.8959999 -0.86799997
7.5170002 9.8439999 -1.0930001
6.4860001 15.974 -0.98400003
6.4660001 16.07 -0.99000001
6.4689999 16.15 -0.995
6.4499998 16.25 -1.001
7.6209998 8.8120003 -1.291
6.3889999 16.393999 -1.008
6.6279998 14.611 0.079000004
6.5840001 14.637 0.079000004
6.5120001 15.866 -1.273
6.342 16.818001 -1.035
7.612 8.8570004 -1.294
6.2979999 17.024 -1.0470001
6.3189998 16.917999 -1.04
6.2490001 17.221001 -1.058
6.2319999 17.346001 -1.066
6.197 17.417999 -1.0700001
7.5089998 10.057 -0.87800002
7.5910001 8.9460001 -1.301
7.4640002 10.419 -0.977
7.5139999 10.163 -0.88499999
7.5570002 9.4289999 -1.061
7.6869998 8.6820002 -1.224
7.6560001 8.7019997 -1.224
7.6669998 8.7690001 -1.2309999
7.6570001 8.8140001 -1.234
7.6479998 8.8590002 -1.238
7.652 8.8920002 -1.2410001
7.4910002 10.267 -0.89099997
7.6440001 8.9980001 -1.25
7.6399999 9.0509996 -1.255
7.6389999 9.1070004 -1.26
7.6240001 9.1470003 -1.263
7.6230001 9.2049999 -1.268
7.585 9.1400003 -1.3200001
7.6160002 9.2849998 -1.275
7.6129999 9.342 -1.28
7.5910001 9.375 -1.2819999
7.579 9.4200001 -1.285
7.5760002 9.2770004 -0.97600001
7.572 9.1829996 -1.323
7.5929999 9.592 -1.303
7.5830002 9.6409998 -1.307
7.671 8.6940002 -1.086
7.5700002 9.7510004 -1.316
7.6589999 8.7629995 -1.091
7.5669999 9.8739996 -1.3279999
7.6469998 8.8610001 -1.098
7.5580001 9.96 -1.336
7.5560002 10.022 -1.342
7.5359998 10.062 -1.344
7.619 9.0570002 -1.113
7.5630002 9.2910004 -1.3329999
7.5180001 10.238 -1.36
7.5139999 10.3 -1.3660001
7.6030002 9.243 -1.128
7.5999999 9.2989998 -1.132
7.5139999 10.472 -1.383
7.4770002 10.559 -0.91100001
7.4920001 10.582 -1.393
7.4759998 10.63 -1.396
7.4759998 10.701 -1.403
7.4710002 10.73 -1.406
7.4510002 10.773 -1.409
7.4640002 10.866 -1.419
7.4590001 10.932 -1.425
7.4510002 10.995 -1.431
7.4439998 11.059 -1.437
7.4299998 11.114 -1.442
7.4499998 11.182 -1.45
7.434 11.233 -1.454
7.4219999 11.293 -1.46
7.4120002 11.355 -1.465
7.414 11.436 -1.474
7.3870001 11.474 -1.476
7.3730001 11.531 -1.4809999
7.395 11.606 -1.49
7.3769999 11.66 -1.495
7.369 11.728 -1.501
7.3540001 11.787 -1.506
7.3379998 11.844 -1.511
7.3260002 11.907 -1.517
7.3140001 11.973 -1.523
7.2870002 12.013 -1.526
7.2930002 12.067 -1.5319999
7.2719998 12.117 -1.536
7.2589998 12.182 -1.5420001
7.2329998 12.225 -1.545
7.2140002 12.282 -1.55
7.2059999 12.356 -1.557
7.1900001 12.419 -1.562
7.1919999 12.468 -1.568
7.1729999 12.526 -1.573
7.125 12.909 -1.6109999
7.3920002 11.446 -1.311
7.3829999 11.471 -1.313
7.3649998 11.523 -1.317
7.369 11.61 -1.325
7.3639998 11.684 -1.332
7.348 11.739 -1.336
7.3319998 11.796 -1.341
7.316 11.854 -1.345
7.3239999 11.908 -1.351
7.302 11.956 -1.354
7.2950001 12.03 -1.3609999
7.2789998 12.089 -1.365
7.2649999 12.153 -1.3710001
7.2399998 12.198 -1.373
7.2280002 12.265 -1.3789999
7.237 12.324 -1.385
7.224 12.392 -1.391
6.7249999 14.886 0.18099999
6.5949998 14.721 0.18099999
7.1789999 12.587 -1.4069999
7.165 12.655 -1.413
7.1469998 12.715 -1.418
7.152 12.772 -1.424
7.1420002 12.848 -1.431
7.1110001 12.888 -1.433
7.1090002 12.982 -1.442
7.0960002 13.055 -1.448
7.0710001 13.107 -1.452
7.0609999 13.187 -1.459
7.0619998 13.24 -1.464
7.0469999 13.311 -1.471
7.0339999 13.39 -1.478
7.0170002 13.459 -1.484
6.9959998 13.524 -1.489
6.973 13.583 -1.494
6.9619999 13.667 -1.501
6.9489999 13.749 -1.5089999
6.9510002 13.808 -1.515
6.9299998 13.874 -1.52
6.908 13.938 -1.526
6.8940001 14.023 -1.533
6.881 14.107 -1.541
6.8610001 14.18 -1.5470001
6.8369999 14.245 -1.553
6.829 14.284 -1.556
6.8169999 14.376 -1.5650001
6.7989998 14.455 -1.572
6.7750001 14.523 -1.5779999
6.7540002 14.598 -1.584
6.7290001 14.665 -1.59
6.6479998 14.608 -1.58
6.5749998 14.508 -1.567
6.5900002 14.664 -1.5829999
7.4970002 10.116 -1.411
7.487 10.036 -1.402
7.494 10.177 -1.4170001
7.4850001 10.233 -1.4220001
6.2010002 17.264999 -1.602
7.473 10.284 -1.427
7.546 9.4759998 -1.064
7.473 10.352 -1.434
7.4569998 10.398 -1.437
7.4790001 10.463 -1.446
7.5370002 9.5299997 -0.99299997
7.6090002 8.8500004 -1.018
7.2849998 11.896 -1.17
7.5430002 9.7139997 -0.85600001
7.4530001 10.566 -1.455
6.447 16.167 -0.87400001
7.4489999 10.632 -1.461
7.566 9.4440002 -1.348
7.4369998 10.684 -1.466
7.4159999 10.727 -1.469
7.4920001 10.48 -1.229
7.4120002 10.793 -1.475
6.2509999 17.4 -1.161
7.5409999 9.7749996 -0.86000001
7.4359999 10.863 -1.484
6.5089998 15.717 -1.261
7.415 10.906 -1.487
6.3449998 16.749001 -0.90499997
7.415 10.981 -1.495
7.408 11.045 -1.502
7.4050002 11.116 -1.5089999
7.5489998 9.5439997 -1.357
7.3899999 11.169 -1.5140001
7.3709998 11.217 -1.517
7.105 12.842 -0.70499998
7.0830002 12.897 -0.708
7.0619998 12.955 -0.70999998
7.0479999 13.028 -0.71399999
7.0349998 13.101 -0.71700001
7.0320001 13.145 -0.72000003
7.02 13.222 -0.72299999
6.684 14.749 0.25799999
6.9829998 13.356 -0.73000002
6.9819999 13.456 -0.73500001
6.9660001 13.529 -0.73900002
6.9419999 13.589 -0.741
6.8499999 14.285 -0.77700001
6.8119998 14.321 -0.778
6.632 14.589 -0.78899997
6.5570002 14.544 -0.78399998
6.698 14.984 -0.81300002
6.6570001 15.02 -0.81400001
6.5809999 15.707 -0.85100001
6.5240002 15.709 -0.85000002
6.4860001 16.118999 -0.87199998
6.6869998 14.83 0.65600002
6.4289999 16.271 -0.88
6.395 16.336 -0.88300002
6.3699999 16.424999 -0.88700002
6.3460002 16.516001 -0.89200002
6.3590002 16.628 -0.89899999
7.335 11.512 -1.5470001
6.3179998 16.837999 -0.91000003
6.2940001 16.936001 -0.91500002
6.277 17.052999 -0.921
6.243 17.127001 -0.92500001
6.2290001 17.26 -0.93199998
7.3130002 11.557 -1.55
6.3400002 16.732 -1.029
7.0609999 13.083 -1.077
7.0650001 13.14 -1.081
6.4260001 16.311001 -1.306
7.5229998 9.9449997 -0.87099999
7.5149999 9.9049997 -1.098
7.586 9.4910002 -1.2920001
7.5040002 9.9560003 -1.101
7.559 9.4449997 -0.91100001
7.5050001 10.022 -1.107
6.3839998 16.535 -1.017
7.473 10.044 -1.1059999
7.5190001 9.7069998 -1.54
7.5209999 9.7860003 -1.0880001
7.52 9.7910004 -1.012
7.4710002 10.108 -1.112
7.5229998 10.01 -0.875
7.487 10.163 -1.117
7.4840002 10.226 -1.122
7.5 10.196 -0.96200001
6.4419999 16.264 -1.4069999
7.473 10.278 -1.126
7.4660001 10.337 -1.131
7.4790001 10.531 -1.233
7.46 10.396 -1.135
6.2319999 17.521 -1.169
7.4559999 10.46 -1.141
7.4439998 10.513 -1.1440001
7.4549999 10.563 -1.149
6.5310001 15.8 -0.97399998
7.4419999 10.616 -1.153
7.434 10.675 -1.158
7.533 9.5869999 -1.36
7.4219999 10.729 -1.161
7.6459999 8.6569996 -0.861
7.599 8.658 -0.85799998
7.618 8.7349997 -0.86400002
7.625 8.7700005 -0.86699998
7.6170001 8.8170004 -0.87
7.4050002 10.777 -1.165
7.6079998 8.9189997 -0.87699997
7.5939999 8.96 -0.87900001
7.5949998 9.0170002 -0.88300002
7.5890002 9.0679998 -0.88599998
7.6030002 9.1140003 -0.88999999
7.408 10.855 -1.171
7.5890002 9.2130003 -0.89600003
7.5749998 9.2559996 -0.898
7.5700002 9.309 -0.90200001
7.553 9.3479996 -0.90399998
7.533 9.382 -0.90499997
7.395 10.909 -1.175
7.5549998 9.5019999 -0.91500002
7.5500002 9.5570002 -0.91799998
7.5469999 9.6149998 -0.92299998
7.5339999 9.6599998 -0.92500001
7.527 9.7139997 -0.92900002
7.414 10.973 -1.182
7.5300002 9.8120003 -0.93599999
7.5159998 9.8579998 -0.93800002
7.5180001 9.9250002 -0.94300002
7.5100002 9.9799995 -0.94700003
7.4959998 10.026 -0.94999999
6.737 14.674 -1.187
7.4850001 10.143 -0.958
7.5770001 9.6960001 -1.311
7.4899998 10.25 -0.96600002
7.4889998 10.317 -0.97100002
7.4780002 10.37 -0.97399998
7.3909998 11.089 -1.191
7.4590001 10.481 -0.98100001
7.454 10.544 -0.986
7.4510002 10.575 -0.98799998
7.4460001 10.639 -0.99299997
7.4450002 10.708 -0.99800003
7.3829999 11.152 -1.196
7.4239998 10.822 -1.005
7.415 10.883 -1.0089999
7.4070001 10.944 -1.0140001
7.4029999 11.012 -1.0190001
7.4089999 11.058 -1.022
7.3790002 11.222 -1.202
7.3940001 11.188 -1.0319999
7.3839998 11.249 -1.036
7.3730001 11.309 -1.04
7.3660002 11.377 -1.045
7.348 11.427 -1.048
7.3429999 11.458 -1.05
7.349 11.547 -1.057
7.3390002 11.612 -1.062
7.323 11.667 -1.0650001
7.3150001 11.736 -1.0700001
7.3010001 11.796 -1.074
7.2820001 11.847 -1.077
7.2909999 11.905 -1.082
7.276 11.965 -1.086
7.256 12.017 -1.089
7.2449999 12.084 -1.094
7.2360001 12.154 -1.099
7.2010002 12.182 -1.1
7.2010002 12.27 -1.107
7.2119999 12.333 -1.112
7.1960001 12.395 -1.1160001
7.1799998 12.457 -1.1210001
7.1680002 12.526 -1.125
7.152 12.59 -1.13
7.138 12.658 -1.135
7.119 12.716 -1.138
7.125 12.774 -1.143
7.1090002 12.84 -1.148
7.0689998 12.863 -1.148
7.0809999 12.981 -1.158
7.0599999 13.04 -1.1619999
7.04 13.1 -1.166
7.026 13.173 -1.171
7.0339999 13.239 -1.177
7.0219998 13.317 -1.183
7.0009999 13.378 -1.187
6.9829998 13.446 -1.192
6.9660001 13.517 -1.197
6.9310002 13.553 -1.198
6.9330001 13.662 -1.207
6.6750002 14.606 0.37
6.7270002 14.844 0.37200001
6.9029999 13.873 -1.223
6.882 13.939 -1.228
6.869 14.023 -1.234
6.8520002 14.1 -1.24
6.829 14.166 -1.244
6.8239999 14.268 -1.253
6.8049998 14.286 -1.253
6.7989998 14.39 -1.262
6.7820001 14.471 -1.268
6.763 14.55 -1.274
6.7509999 14.644 -1.281
6.612 14.582 -1.271
6.5409999 14.488 -1.26
6.6659999 14.888 -1.298
6.6570001 14.992 -1.307
6.6420002 15.216 -1.325
6.5619998 15.162 -1.317
6.5879998 15.355 -1.335
6.5960002 15.438 -1.342
6.5749998 15.525 -1.349
6.5549998 15.613 -1.355
6.52 15.667 -1.359
6.5149999 15.796 -1.369
6.4920001 15.879 -1.376
6.4759998 15.984 -1.3839999
6.4780002 16.061001 -1.391
6.4569998 16.155001 -1.398
7.6409998 8.9099998 -1.102
6.4099998 16.334 -1.4119999
6.4860001 16.017 -1.284
6.368 16.530001 -1.427
6.3470001 16.629999 -1.4349999
6.3499999 16.718 -1.443
6.3270001 16.816 -1.45
6.3169999 16.950001 -1.462
6.4660001 16.115 -1.2920001
6.2389998 17.066 -1.469
6.2340002 17.219999 -1.482
6.4499998 16.222 -1.3
6.645 14.566 -0.70200002
6.7049999 14.819 -0.71700001
6.5770001 14.66 -0.70599997
6.6389999 15.179 -0.73400003
6.6389999 15.244 -0.73699999
6.6160002 15.321 -0.741
6.592 15.399 -0.74400002
6.5669999 15.475 -0.74800003
6.5510001 15.573 -0.75199997
6.5240002 15.645 -0.755
6.506 15.739 -0.75999999
6.4920001 15.917 -0.76899999
6.4640002 15.991 -0.77200001
6.4390001 16.372999 -0.792
6.3860002 16.386999 -0.792
6.257 17.077999 -0.82499999
6.381 16.5 -1.3200001
6.382 16.580999 -1.326
6.3649998 16.694 -1.335
6.4310002 16.35 -1.007
7.619 8.8760004 -0.87400001
6.3390002 16.783001 -1.341
6.3140001 16.877001 -1.348
7.5219998 10.109 -1.348
7.4710002 10.446 -0.903
6.2620001 17.066 -1.362
7.5440001 9.3520002 -1.054
6.513 16.034 -1.074
6.2249999 17.132999 -1.3660001
6.2459998 17.274 -1.378
6.2290001 17.398001 -1.388
7.559 9.8669996 -1.179
7.4029999 11.031 -1.186
7.6230001 8.9960003 -1.181
7.6620002 8.677 -1.4400001
7.6199999 8.6850004 -1.437
7.6370001 8.7589998 -1.447
7.6300001 8.8070002 -1.451
7.6370001 8.8430004 -1.456
7.6300001 8.8909998 -1.46
7.619 8.934 -1.464
7.6170001 8.9890003 -1.47
7.6300001 9.0620003 -1.479
7.5970001 9.0799999 -1.478
7.5970001 9.1389999 -1.484
7.4679999 10.35 -1.053
7.599 9.2279997 -1.494
7.5929999 9.2810001 -1.499
7.6020002 9.3509998 -1.508
7.579 9.382 -1.5089999
7.5760002 9.4399996 -1.515
7.552 9.4700003 -1.516
7.5780001 9.533 -1.526
7.5489998 9.5579996 -1.526
7.526 9.5909996 -1.528
7.5240002 9.651 -1.534
6.6269999 14.647 0.45199999
7.506 9.7530003 -1.544
7.52 9.8339996 -1.554
7.5320001 10.078 -1.5829999
7.473 10.065 -1.576
7.6170001 8.6389999 -0.93099999
7.619 8.6960001 -0.935
6.638 14.6 0.64899999
7.6160002 8.7480001 -0.93900001
7.6079998 8.7950001 -0.94199997
7.6100001 8.8529997 -0.94599998
6.4770002 16.313 -1.092
7.5890002 8.8850002 -0.94700003
7.6069999 8.9350004 -0.95200002
7.658 8.9569998 -1.248
7.6020002 8.9860001 -0.95599997
7.5869999 9.0249996 -0.958
