# .PCD v0.7 - Point Cloud Data file format
VERSION 0.7
FIELDS x y z
SIZE 4 4 4
TYPE F F F
COUNT 1 1 1
WIDTH 190
HEIGHT 1
VIEWPOINT 0 0 0 1 0 0 0
POINTS 190
DATA ascii
22.743999 50.618999 -0.95899999
22.587999 50.696999 -0.95899999
22.461 50.841 -0.95999998
22.316999 50.945999 -0.96100003
22.187 51.085999 -0.963
22.044001 51.196999 -0.96399999
21.992001 51.296001 -0.96499997
21.853001 51.417999 -0.96600002
21.714001 51.540001 -0.96799999
21.58 51.674999 -0.96899998
21.434 51.783001 -0.97000003
21.292 51.900002 -0.97100002
21.165001 52.055 -0.97299999
21.112 52.160999 -0.97500002
20.955999 52.244999 -0.97500002
20.812 52.362999 -0.97600001
21.306999 51.970001 2.108
22.674999 50.945 0.38299999
22.047001 51.702999 0.384
21.881001 51.539001 0.38299999
21.712 51.59 0.38299999
21.569 51.705002 0.38299999
21.431999 51.833 0.384
21.285999 51.943001 0.384
21.142 52.056999 0.384
21.009001 52.198002 0.384
20.941 52.265999 0.384
20.802 52.395 0.38499999
20.655001 52.505001 0.38499999
20.506001 52.612 0.38499999
20.358999 52.723 0.38499999
20.205999 52.82 0.38499999
20.062 52.941002 0.38499999
19.995001 53.015999 0.38499999
19.843 53.118 0.38600001
19.694 53.227001 0.38600001
19.541 53.330002 0.38600001
19.393999 53.445 0.38600001
19.242001 53.550999 0.38600001
19.094 53.667999 0.38600001
19.02 53.728001 0.38600001
21.289 51.993999 -1.26
19.229 53.632 0.78299999
22.263 51.443001 1.485
22.045 51.382 1.482
21.752001 51.591 1.483
21.614 51.716999 1.485
21.554001 51.801998 1.4859999
21.41 51.916 1.487
21.278999 52.061001 1.489
21.136999 52.181 1.4910001
20.993999 52.300999 1.492
20.847 52.409 1.493
20.488001 52.709 1.4960001
20.334999 52.805 1.497
20.190001 52.924999 1.498
20.039 53.028999 1.499
19.899 53.162998 1.501
19.794001 53.394001 1.505
19.379 53.561001 1.506
19.216 53.637001 1.506
19.070999 53.763 1.508
19.163 53.715 0.78299999
22.518 50.638 -0.57099998
22.377001 50.750999 -0.57200003
22.240999 50.874001 -0.57300001
22.108 51.006001 -0.574
22.049 51.09 -0.574
21.912001 51.214001 -0.57499999
21.771999 51.332001 -0.57599998
21.635 51.458 -0.57700002
21.523001 51.645 -0.579
21.382999 51.768002 -0.57999998
21.247 51.900002 -0.58099997
21.188 51.987 -0.58099997
21.059999 52.141998 -0.583
20.900999 52.219002 -0.583
20.756001 52.334999 -0.58399999
20.620001 52.471001 -0.58499998
20.110001 52.875999 -0.58700001
21.913 51.348 -1.5829999
21.778 51.479 -1.585
21.624001 51.564999 -1.585
21.344 51.806999 -1.589
21.298 51.928001 -1.592
21.15 52.030998 -1.5930001
21.011999 52.160999 -1.596
20.860001 52.256001 -1.597
21.844 51.623001 -0.236
19.316 53.546001 1.773
21.09 52.264999 0.77700001
22.665001 50.75 1.7359999
22.527 50.870998 1.737
22.389 50.991001 1.739
21.975 51.356998 1.744
21.931999 51.48 1.7460001
21.639 51.688999 1.748
21.497999 51.810001 1.75
21.361 51.939999 1.752
21.216 52.050999 1.753
21.091999 52.214001 1.756
20.908001 52.231998 1.755
20.796 52.188999 1.752
20.65 52.299999 1.7539999
20.507 52.421001 1.755
19.985001 53.041 1.766
21.283001 52.036999 0.77499998
22.673 51.030998 0.77100003
21.482 51.766998 -1.257
22.148001 51.813999 0.77700001
21.884001 51.644001 0.77399999
21.702 51.666 0.773
21.556 51.772999 0.77399999
21.421 51.907001 0.77499998
21.434999 51.883999 -1.2589999
21.138 52.147999 0.77600002
22.587 50.910999 -0.233
20.937 52.360001 0.77700001
20.795 52.481998 0.778
21.518 51.757999 -0.236
20.503 52.712002 0.77899998
20.35 52.807999 0.77899998
20.202999 52.919998 0.77999997
21.038 52.214001 -0.23800001
20.893999 52.330002 -0.23800001
20.747 52.439999 -0.23899999
19.681999 53.310001 0.78100002
20.539 52.637001 -0.23999999
20.396 52.758999 -0.23999999
20.245001 52.862 -0.23999999
20.093 52.963001 -0.241
19.013 53.827999 0.78399998
20.996 52.209999 -1.263
20.851999 52.327999 -1.2640001
21.459 51.845001 -0.236
21.32 51.969002 -0.237
21.179001 52.091999 -0.237
20.134001 52.991001 0.77999997
19.981001 53.09 0.77999997
19.834 53.206001 0.78100002
19.535999 53.43 0.78200001
19.382 53.528 0.78200001
22.478001 50.909 2.0910001
22.348 51.047001 2.0929999
22.204 51.155998 2.095
22.652 50.716999 -1.244
22.503 50.812 -1.244
22.441999 50.889 -1.2460001
21.905001 51.411999 -1.253
21.749001 51.493 -1.253
21.613001 51.624001 -1.255
21.107 52.181 2.112
20.969 52.312 2.115
20.823 52.424 2.1170001
21.153999 52.131001 -1.262
20.528 52.645 2.1199999
20.381001 52.756001 2.122
20.716 52.465 -1.266
18.861 53.933998 0.78500003
22.721001 51.085999 0.12
21.906 51.863998 0.119
21.737 51.692001 0.12
21.601999 51.826 0.119
21.465 51.957001 0.119
21.306999 52.036999 0.119
21.174999 52.18 0.119
21.025999 52.283001 0.119
20.886 52.41 0.119
20.820999 52.487999 0.119
20.525999 52.707001 0.119
20.375999 52.813999 0.119
20.079 53.035 0.119
19.936001 53.159 0.119
22.621 51.118 1.058
22.487 51.250999 1.059
22.431 51.341 1.0599999
22.292999 51.466 1.061
22.150999 51.582001 1.062
22.016001 51.716 1.063
21.802 51.660999 1.061
21.629 51.703999 1.0599999
21.490999 51.831001 1.061
21.440001 51.938 1.062
21.299 52.061001 1.063
21.153 52.169998 1.064
21.011 52.292 1.0650001
20.868 52.41 1.066
20.723 52.527 1.067
20.570999 52.625 1.067
21.658001 51.636002 -0.236
