# .PCD v0.7 - Point Cloud Data file format
VERSION 0.7
FIELDS x y z
SIZE 4 4 4
TYPE F F F
COUNT 1 1 1
WIDTH 210
HEIGHT 1
VIEWPOINT 0 0 0 1 0 0 0
POINTS 210
DATA ascii
62.833 20.367001 2.0239999
62.737999 20.555 2.023
63.183998 20.921 2.0369999
63.16 21.132999 2.039
63.078999 21.216 2.0369999
62.98 21.403 2.036
62.898998 21.596001 2.036
62.91 21.820999 2.0380001
62.863998 22.027 2.039
62.778999 22.219 2.039
64.182999 27.190001 -1.257
63.014 23.084 2.053
63.049999 23.323 2.056
63.083 23.559999 2.059
63.125999 23.802999 2.062
63.167 24.045 2.066
63.268002 24.197001 2.0699999
63.278999 24.429001 2.072
62.960999 21.958 0.103
64.069 26.785999 -1.251
64.254997 27.698 -1.262
64.404999 19.341 1.2309999
64.651001 18.990999 0.88800001
64.679001 19.219999 0.889
64.545998 19.400999 0.88800001
64.452003 19.594 0.88800001
64.334999 19.778999 0.88700002
64.223 19.966 0.88700002
64.101997 20.149 0.88599998
64.036003 20.239 0.88599998
63.924999 20.424999 0.88499999
63.548 20.525 0.88200003
63.402 20.698 0.88099998
63.313999 20.889 0.88099998
63.198002 21.070999 0.88
63.069 21.249001 0.88
63.014999 21.341 0.87900001
62.921001 21.530001 0.87900001
62.918999 21.971001 0.88099998
62.789001 22.148001 0.88
64.022003 24.496 0.1
64.109001 27.040001 -1.2539999
63.487 23.408001 0.89099997
63.639 24.148001 0.89499998
63.779999 24.316999 0.89700001
63.575001 24.466999 0.89499998
63.362999 24.615 0.89399999
63.355999 24.841999 0.89499998
63.404999 25.091 0.89600003
63.404999 25.322001 0.89700001
63.505001 25.593 0.89899999
63.515999 24.014 -0.329
63.556 24.257 -0.33000001
63.584 24.497 -0.331
63.416 24.660999 -0.331
63.356998 24.753 -0.33000001
63.355 24.982 -0.331
63.390999 25.226 -0.33199999
63.792999 27.207001 -1.604
64.013 26.528 -0.34
64.055 26.781 -0.34200001
64.087997 27.032 -0.34299999
63.431 25.072001 0.101
64.166 27.540001 -0.345
64.199997 27.794001 -0.34599999
64.151001 28.013 -0.34599999
64.011002 28.072001 -0.345
63.453999 25.312 0.101
63.471001 25.549999 0.1
64.222 27.445 -1.2589999
63.673 18.862 2.4549999
63.574001 19.049999 2.4530001
63.453999 19.232 2.451
63.348999 19.417999 2.45
63.237999 19.601 2.448
63.155998 19.684 2.4460001
63.02 19.858999 2.4430001
62.944 20.052999 2.4430001
62.823002 20.232 2.441
62.723 20.417999 2.4400001
62.591999 20.593 2.437
62.883999 20.908001 2.45
63.200001 21.122999 2.4619999
63.069 21.299999 2.46
62.953999 21.482 2.4579999
62.860001 21.67 2.457
62.903 21.907 2.461
62.811001 22.096001 2.461
62.814999 22.32 2.4630001
64.056 28.155001 0.097999997
63.033001 23.406 2.483
63.062 23.642 2.4860001
63.112 23.888 2.4909999
63.198002 24.034 2.4949999
63.223 24.271 2.4990001
63.241001 24.506001 2.503
63.308998 24.761999 2.5079999
63.348 25.007 2.5120001
63.775002 24.631001 0.101
63.452 24.735001 0.101
63.847 27.705999 -1.61
64.688004 19.084 0.102
65.009003 19.290001 0.101
65.278999 19.594 0.101
64.378998 20.209 0.102
63.536999 20.714001 0.103
63.727001 26.707001 -1.597
63.742001 26.948999 -1.6
63.181999 21.259001 0.103
63.067001 21.441 0.103
63.013 21.533001 0.103
64.466003 19.028999 1.23
64.370003 19.219999 1.23
62.863998 22.146 0.103
64.472 19.582001 1.233
64.362 19.77 1.232
64.25 19.957001 1.2309999
64.135002 20.142 1.23
63.766998 20.247 1.225
63.653 20.431 1.225
63.535999 20.504 1.223
63.416 20.684999 1.222
63.321999 20.875 1.222
63.210999 21.058001 1.221
63.110001 21.245001 1.221
63.032001 21.440001 1.221
62.907001 21.618 1.22
64.245003 27.997999 0.097999997
62.874001 21.938999 1.221
62.792 22.132 1.221
63.342999 23.224001 1.234
63.449001 23.375999 1.2359999
63.469002 23.610001 1.238
63.514 23.854 1.24
63.575001 24.106001 1.242
63.604 24.344999 1.244
63.306999 24.459999 1.24
63.832001 27.461 -1.607
63.898998 27.966999 -1.614
64.671997 19.048 0.419
64.845001 19.209999 0.41999999
64.931999 19.458 0.41999999
64.629997 19.589001 0.41999999
64.391998 19.738001 0.419
64.301003 19.931 0.419
64.205002 20.122999 0.419
64.124001 20.208 0.419
64.014999 20.395 0.419
63.41 20.422001 0.417
63.118999 20.548 0.41600001
63.276001 20.819 0.417
63.168999 21.004 0.417
63.071999 21.191999 0.417
62.959 21.264 0.41600001
62.882999 21.458 0.41600001
62.833 21.882999 0.417
62.786999 22.089001 0.417
63.59 25.885 -1.235
63.722 24.348 0.42199999
63.519001 24.385 0.421
63.278 24.521 0.421
63.333 24.771 0.421
63.365002 25.013 0.42199999
63.366001 25.243999 0.42199999
63.411999 25.493 0.42199999
64.238998 27.93 -1.2640001
64.002998 28.066999 -1.26
64.616997 27.763 0.42899999
64.509003 27.993 0.097999997
64.457001 19.059999 1.739
64.383003 19.148001 1.738
64.262001 19.332001 1.737
64.191002 19.531 1.7359999
64.093002 19.721001 1.7359999
63.974998 19.905001 1.734
63.848 20.086 1.733
63.708 20.261999 1.7309999
63.610001 20.451 1.73
63.483002 20.52 1.728
63.076 20.608 1.72
63.011002 20.806 1.72
63.207001 21.091 1.726
63.117001 21.282 1.725
62.978001 21.455 1.724
62.896999 21.538 1.722
62.825001 22.177 1.726
63.037998 23.26 1.739
63.103001 23.509001 1.742
63.126999 23.743999 1.744
63.16 23.983999 1.747
63.195999 24.225 1.75
63.221001 24.462 1.752
63.313 24.612 1.755
64.134003 27.289 -0.34400001
63.404999 24.832001 0.101
63.915001 28.214001 -1.617
63.395 25.409 -0.75199997
63.537998 25.931 -0.75599998
64.207001 27.987 -0.77600002
63.966999 28.122 -0.77399999
64.038002 26.537001 -1.248
64.411003 18.993999 2.0539999
64.318001 19.186001 2.053
64.206001 19.372999 2.0510001
64.113998 19.565001 2.0510001
63.973999 19.742001 2.0480001
63.868 19.929001 2.0469999
63.791 20.014999 2.046
63.696999 20.205999 2.0450001
63.576 20.388 2.043
