# .PCD v0.7 - Point Cloud Data file format
VERSION 0.7
FIELDS x y z
SIZE 4 4 4
TYPE F F F
COUNT 1 1 1
WIDTH 1706
HEIGHT 1
VIEWPOINT 0 0 0 1 0 0 0
POINTS 1706
DATA ascii
0.21699999 3.02 -0.55199999
0.184 2.825 -0.50800002
0.176 2.7809999 -0.498
-0.043000001 2.839 0.061000001
0.15700001 2.756 -0.49200001
0.148 2.7590001 -0.49200001
0.14 2.763 -0.493
0.131 2.7650001 -0.49399999
0.122 2.7520001 -0.491
0.118 2.756 -0.491
0.109 2.753 -0.491
0.1 2.753 -0.491
0.092 2.7550001 -0.491
0.082999997 2.7539999 -0.491
0.074000001 2.7539999 -0.491
0.064999998 2.7379999 -0.48699999
0.057 2.7390001 -0.48699999
0.052999999 2.7490001 -0.48899999
0.044 2.7390001 -0.48699999
0.035 2.747 -0.48899999
0.026000001 2.733 -0.486
0.017999999 2.7449999 -0.48800001
0.0089999996 2.733 -0.486
0.001 2.7279999 -0.48500001
-0.0040000002 2.733 -0.486
-0.012 2.733 -0.486
-0.021 2.727 -0.48500001
-0.028999999 2.727 -0.48500001
-0.241 2.809 0.061999999
-0.249 2.7939999 0.061999999
-0.257 2.79 0.063000001
-0.059 2.727 -0.48500001
-0.27399999 2.786 0.063000001
-0.27900001 2.7880001 0.063000001
-0.28799999 2.7869999 0.063000001
-0.093999997 2.7260001 -0.48500001
-0.30500001 2.7809999 0.063000001
-0.315 2.79 0.061999999
-0.322 2.7809999 0.063000001
-0.33000001 2.7739999 0.063000001
-0.33500001 2.773 0.063000001
-0.34799999 2.8039999 0.061000001
-0.36899999 2.8959999 0.057
-0.382 2.924 0.055
-0.39199999 2.9230001 0.055
-0.17299999 2.7609999 -0.493
-0.183 2.79 -0.5
-0.192 2.7850001 -0.49900001
-0.2 2.779 -0.498
-0.20900001 2.7839999 -0.49900001
-0.21600001 2.7620001 -0.49399999
-0.22400001 2.7520001 -0.49200001
-0.229 2.6960001 -0.47999999
-0.23800001 2.7639999 -0.495
-0.248 2.779 -0.498
-0.148 2.559 -0.72899997
-0.059999999 2.721 -0.61699998
-0.155 2.5409999 -0.72299999
0.33399999 3.5350001 -0.60500002
-0.167 2.5420001 -0.72399998
0.30700001 2.8329999 -0.537
0.30000001 2.8559999 -0.542
0.29100001 2.8559999 -0.542
0.28799999 2.931 -0.55900002
0.28200001 2.9690001 -0.56800002
0.27200001 2.901 -0.55199999
0.257 2.826 -0.53399998
0.248 2.823 -0.53399998
0.23800001 2.8139999 -0.53100002
0.23100001 2.8369999 -0.53600001
0.223 2.8629999 -0.542
0.21600001 2.8870001 -0.54799998
0.20900001 2.8499999 -0.53899997
0.19599999 2.786 -0.52399999
0.178 2.631 -0.48800001
0.17 2.6300001 -0.48800001
0.162 2.6289999 -0.48699999
0.154 2.631 -0.48800001
0.145 2.6240001 -0.486
0.141 2.6259999 -0.486
0.132 2.622 -0.48500001
0.125 2.631 -0.48699999
0.116 2.6270001 -0.486
0.108 2.625 -0.486
0.39899999 3.4679999 0.30500001
0.090999998 2.622 -0.48500001
0.086999997 2.6240001 -0.48500001
0.382 3.609 0.308
0.37400001 3.638 0.30899999
0.061999999 2.6059999 -0.48100001
0.35600001 3.6340001 0.30899999
0.34 3.595 0.308
0.329 3.596 0.308
0.31799999 3.6029999 0.308
0.30599999 3.5899999 0.308
0.29499999 3.5910001 0.308
0.29100001 3.6129999 0.308
0.278 3.598 0.308
0.26699999 3.6010001 0.308
0.259 3.6440001 0.30899999
-0.024 2.612 -0.48199999
-0.028000001 2.598 -0.479
-0.035999998 2.5810001 -0.47499999
-0.044 2.5829999 -0.47499999
-0.052000001 2.5840001 -0.47600001
-0.059999999 2.5899999 -0.477
-0.068000004 2.5739999 -0.47400001
-0.075999998 2.5840001 -0.47600001
-0.079999998 2.5739999 -0.47400001
-0.088 2.5680001 -0.472
-0.097000003 2.589 -0.477
-0.105 2.5829999 -0.47600001
-0.113 2.5899999 -0.47799999
-0.121 2.5799999 -0.47499999
-0.12800001 2.566 -0.472
-0.133 2.5780001 -0.47499999
-0.142 2.5910001 -0.47799999
-0.103 2.7160001 -0.616
-0.155 2.553 -0.46900001
-0.164 2.566 -0.47299999
-0.17 2.536 -0.46599999
-0.18000001 2.5610001 -0.472
-0.19599999 2.7019999 -0.505
-0.20999999 2.7720001 -0.52100003
-0.22 2.7850001 -0.52399999
-0.227 2.766 -0.51999998
-0.237 2.777 -0.523
-0.245 2.767 -0.51999998
-0.25600001 2.7869999 -0.52499998
-0.26100001 2.75 -0.51700002
-0.26499999 2.7460001 -0.51599997
-0.27500001 2.7620001 -0.51999998
-0.28299999 2.75 -0.51700002
-0.29100001 2.7509999 -0.51800001
-0.301 2.7609999 -0.51999998
-0.31099999 2.77 -0.523
-0.111 2.7149999 -0.616
-0.035 2.5120001 -0.39199999
0.34900001 3.608 -0.22499999
0.336 3.596 -0.223
0.32699999 3.6129999 -0.22499999
0.315 3.608 -0.22400001
0.30399999 3.6129999 -0.22499999
0.292 3.6110001 -0.22499999
0.28600001 3.6099999 -0.22400001
0.27500001 3.615 -0.22499999
0.26300001 3.598 -0.223
0.25099999 3.5929999 -0.222
-0.205 2.72 0.148
0.23899999 3.5910001 -0.222
0.30000001 2.8340001 -0.56099999
0.29100001 2.8380001 -0.56199998
0.285 2.8610001 -0.56699997
0.27700001 2.8729999 -0.56999999
0.27200001 2.8740001 -0.56999999
0.26300001 2.8670001 -0.56800002
0.255 2.8770001 -0.56999999
0.24699999 2.895 -0.574
0.229 2.7950001 -0.55000001
0.219 2.7880001 -0.54799998
0.20999999 2.783 -0.54699999
0.205 2.78 -0.546
0.197 2.7820001 -0.546
0.18799999 2.7809999 -0.546
0.17900001 2.78 -0.54500002
0.17 2.7780001 -0.54500002
0.161 2.777 -0.54400003
0.153 2.7750001 -0.54400003
0.148 2.777 -0.54400003
0.14 2.7780001 -0.54400003
0.13 2.767 -0.542
0.122 2.7690001 -0.542
0.113 2.773 -0.54299998
0.104 2.77 -0.542
0.096000001 2.7720001 -0.542
0.086000003 2.763 -0.54000002
0.082000002 2.757 -0.53899997
0.072999999 2.7590001 -0.53899997
0.064999998 2.7609999 -0.54000002
0.056000002 2.7650001 -0.54100001
0.046999998 2.756 -0.53799999
0.037999999 2.75 -0.537
0.029999999 2.7520001 -0.537
0.026000001 2.7539999 -0.53799999
0.017000001 2.756 -0.53799999
0.0080000004 2.7539999 -0.53799999
-0.001 2.744 -0.53500003
-0.0089999996 2.7390001 -0.53399998
-0.017999999 2.7409999 -0.53500003
-0.026000001 2.7420001 -0.53500003
-0.030999999 2.7460001 -0.53600001
-0.039000001 2.756 -0.53799999
-0.048 2.7360001 -0.53399998
-0.057 2.74 -0.53500003
-0.064999998 2.75 -0.537
-0.074000001 2.7260001 -0.53100002
-0.082000002 2.7349999 -0.53399998
-0.086999997 2.7409999 -0.53500003
-0.094999999 2.727 -0.53200001
-0.104 2.727 -0.53200001
-0.112 2.73 -0.53299999
-0.12 2.72 -0.52999997
-0.12899999 2.7219999 -0.53100002
-0.139 2.7490001 -0.537
-0.146 2.717 -0.52999997
-0.15000001 2.7130001 -0.52899998
-0.15899999 2.724 -0.53200001
-0.167 2.7060001 -0.528
-0.176 2.7190001 -0.53100002
-0.185 2.7279999 -0.53299999
-0.192 2.697 -0.52600002
-0.20100001 2.714 -0.52999997
-0.207 2.7390001 -0.53600001
-0.22 2.7980001 -0.55000001
-0.228 2.7880001 -0.54799998
-0.23800001 2.7950001 -0.55000001
-0.245 2.773 -0.54500002
-0.252 2.76 -0.542
-0.26100001 2.7539999 -0.54100001
-0.26699999 2.773 -0.54500002
-0.27599999 2.776 -0.546
-0.28400001 2.7750001 -0.546
-0.292 2.766 -0.54400003
0.308 3.5829999 -0.48100001
0.30199999 3.586 -0.48199999
0.32100001 3.5769999 -0.175
0.31 3.5799999 -0.175
0.29800001 3.579 -0.175
0.287 3.576 -0.17399999
0.248 3.6159999 -0.486
-0.212 2.701 0.148
0.25099999 3.819 -0.51999998
0.421 2.717 -0.56599998
0.41499999 2.74 -0.57099998
0.40599999 2.7349999 -0.56999999
0.39399999 2.717 -0.565
0.38499999 2.7149999 -0.56400001
0.38 2.737 -0.56900001
0.37400001 2.7279999 -0.56699997
0.366 2.737 -0.56900001
0.35600001 2.7190001 -0.56400001
0.347 2.7179999 -0.56300002
0.338 2.7149999 -0.56199998
0.331 2.7320001 -0.56599998
0.322 2.7309999 -0.56599998
0.31900001 2.7390001 -0.56800002
0.31099999 2.7479999 -0.56999999
0.301 2.7349999 -0.56599998
0.294 2.7509999 -0.56999999
0.28400001 2.7409999 -0.56699997
0.27700001 2.763 -0.57300001
0.27000001 2.773 -0.57499999
0.26199999 2.7820001 -0.57700002
0.257 2.777 -0.57499999
0.249 2.793 -0.579
0.241 2.7969999 -0.57999998
0.233 2.8099999 -0.583
0.222 2.7809999 -0.57599998
0.213 2.7820001 -0.57599998
0.20200001 2.7520001 -0.56800002
0.197 2.737 -0.56400001
0.18799999 2.7309999 -0.56300002
0.17900001 2.72 -0.56
0.171 2.7290001 -0.56199998
0.162 2.721 -0.56
0.153 2.714 -0.55800003
0.14399999 2.701 -0.55500001
0.139 2.6960001 -0.55299997
0.131 2.7060001 -0.55599999
0.124 2.7309999 -0.56199998
0.114 2.7060001 -0.55599999
0.106 2.707 -0.55599999
0.097999997 2.7190001 -0.55800003
0.088 2.6900001 -0.551
0.083999999 2.6800001 -0.54900002
0.075999998 2.6860001 -0.55000001
0.067000002 2.6830001 -0.54900002
0.059 2.6830001 -0.54900002
0.050000001 2.687 -0.55000001
0.041999999 2.6849999 -0.55000001
0.033 2.6849999 -0.55000001
0.028999999 2.6849999 -0.55000001
0.021 2.6819999 -0.54900002
0.012 2.684 -0.54900002
0.0040000002 2.6860001 -0.55000001
-0.0049999999 2.6860001 -0.55000001
-0.013 2.684 -0.54900002
-0.021 2.684 -0.54900002
-0.026000001 2.6849999 -0.55000001
-0.034000002 2.681 -0.54900002
-0.041999999 2.6830001 -0.54900002
-0.050999999 2.681 -0.54900002
-0.059 2.6830001 -0.54900002
-0.068000004 2.681 -0.54900002
-0.075999998 2.677 -0.54799998
-0.083999999 2.6760001 -0.54799998
-0.089000002 2.6760001 -0.54799998
-0.097000003 2.678 -0.54799998
-0.105 2.6760001 -0.54799998
-0.114 2.677 -0.54799998
-0.122 2.675 -0.54799998
-0.131 2.6730001 -0.54699999
-0.139 2.674 -0.54799998
-0.14300001 2.6719999 -0.54699999
-0.15099999 2.6719999 -0.54699999
-0.16 2.671 -0.54699999
-0.168 2.671 -0.54699999
-0.176 2.6659999 -0.546
-0.185 2.6659999 -0.546
-0.193 2.6689999 -0.54699999
-0.198 2.6689999 -0.54699999
-0.206 2.6700001 -0.54799998
-0.215 2.6689999 -0.54799998
-0.223 2.665 -0.54699999
-0.23100001 2.6619999 -0.546
-0.23999999 2.671 -0.54900002
-0.248 2.668 -0.54799998
-0.252 2.6659999 -0.54799998
-0.26100001 2.671 -0.54900002
-0.27599999 2.724 -0.56300002
-0.28600001 2.737 -0.56599998
-0.29300001 2.7279999 -0.56400001
-0.30199999 2.727 -0.56400001
-0.31 2.7179999 -0.56199998
-0.31299999 2.7119999 -0.56099999
-0.31999999 2.6960001 -0.55699998
-0.331 2.714 -0.56199998
-0.34 2.7190001 -0.56300002
-0.34999999 2.727 -0.56599998
-0.35499999 2.6989999 -0.55900002
-0.36700001 2.727 -0.56599998
0.34200001 3.6129999 -0.090000004
0.336 3.605 -0.089000002
0.32600001 3.6240001 -0.090999998
0.31299999 3.605 -0.089000002
0.30199999 3.6059999 -0.089000002
0.292 3.6229999 -0.090000004
0.28200001 3.6459999 -0.092
0.26800001 3.6070001 -0.089000002
0.26100001 3.5940001 -0.088
0.25 3.598 -0.088
0.237 3.5829999 -0.086999997
0.41499999 2.7460001 -0.60100001
0.15800001 2.8710001 -0.028999999
0.149 2.869 -0.028999999
0.14399999 2.8599999 -0.028000001
0.13600001 2.888 -0.030999999
0.271 2.7950001 -0.61000001
0.264 2.8169999 -0.61500001
0.26300001 2.846 -0.62300003
0.25 2.8069999 -0.61199999
0.22400001 2.6300001 -0.56599998
0.215 2.6229999 -0.56400001
0.207 2.622 -0.56300002
0.198 2.619 -0.56199998
0.19 2.6159999 -0.56099999
0.186 2.6140001 -0.56099999
0.177 2.615 -0.56099999
0.169 2.6170001 -0.56099999
0.161 2.6099999 -0.55900002
0.152 2.612 -0.56
0.14399999 2.609 -0.55900002
0.13600001 2.6110001 -0.55900002
0.132 2.609 -0.55900002
0.123 2.6059999 -0.55800003
0.115 2.6040001 -0.55699998
0.107 2.6010001 -0.55599999
0.098999999 2.6129999 -0.55900002
0.096000001 2.7249999 -0.588
0.082000002 2.6040001 -0.55699998
0.078000002 2.596 -0.55500001
0.068999998 2.5910001 -0.55299997
0.061000001 2.5929999 -0.55400002
0.052999999 2.585 -0.55199999
0.045000002 2.5810001 -0.551
0.035999998 2.5739999 -0.54900002
-0.28400001 2.694 -0.68400002
0.02 2.566 -0.546
-0.14399999 2.5280001 -0.61400002
0.0080000004 2.5639999 -0.546
-0.0 2.5510001 -0.542
-0.0080000004 2.559 -0.54400003
-0.016000001 2.543 -0.54000002
-0.024 2.5220001 -0.53500003
-0.032000002 2.5510001 -0.542
-0.035999998 2.533 -0.53799999
-0.044 2.5350001 -0.53799999
-0.052000001 2.529 -0.537
-0.059999999 2.5309999 -0.537
-0.068000004 2.5090001 -0.53200001
-0.075999998 2.523 -0.53500003
-0.083999999 2.5190001 -0.53399998
-0.086999997 2.5109999 -0.53200001
-0.094999999 2.4949999 -0.528
-0.103 2.5020001 -0.52999997
-0.11 2.4920001 -0.528
-0.119 2.4979999 -0.52899998
-0.126 2.4990001 -0.52999997
-0.134 2.4949999 -0.52899998
-0.138 2.4909999 -0.528
-0.146 2.4920001 -0.528
-0.154 2.49 -0.528
-0.161 2.49 -0.528
-0.169 2.4909999 -0.528
-0.177 2.49 -0.528
-0.185 2.4879999 -0.528
-0.103 2.7939999 -0.092
-0.197 2.487 -0.528
-0.204 2.4860001 -0.528
-0.212 2.4860001 -0.528
-0.22 2.4849999 -0.528
-0.228 2.4860001 -0.528
-0.106 2.7579999 -0.088
-0.23999999 2.487 -0.52899998
-0.26499999 2.6849999 -0.58099997
-0.27700001 2.7190001 -0.58999997
-0.285 2.714 -0.58899999
-0.29300001 2.711 -0.588
-0.116 2.7969999 -0.092
-0.308 2.6819999 -0.58099997
-0.31799999 2.7030001 -0.58700001
-0.322 2.694 -0.58499998
-0.125 2.803 -0.093000002
0.32100001 2.796 -0.64200002
0.31200001 2.7969999 -0.64200002
0.303 2.7980001 -0.64200002
0.30000001 2.8169999 -0.648
0.29300001 2.8280001 -0.64999998
0.28299999 2.823 -0.64899999
0.27500001 2.8369999 -0.65200001
0.26699999 2.848 -0.65499997
0.257 2.8310001 -0.64999998
0.245 2.7939999 -0.63999999
0.235 2.7709999 -0.634
0.229 2.7509999 -0.62800002
0.22 2.757 -0.62900001
0.211 2.7539999 -0.62800002
0.20200001 2.743 -0.625
0.193 2.744 -0.625
0.185 2.7420001 -0.625
0.176 2.743 -0.625
0.17200001 2.743 -0.625
0.163 2.7379999 -0.62300003
0.154 2.74 -0.62400001
0.146 2.7390001 -0.62300003
0.13699999 2.7409999 -0.62400001
0.12899999 2.7420001 -0.62400001
0.12 2.74 -0.62300003
0.116 2.74 -0.62300003
0.107 2.737 -0.62199998
0.097999997 2.7409999 -0.62300003
0.090000004 2.7390001 -0.62300003
0.081 2.7449999 -0.62400001
0.071999997 2.7379999 -0.62199998
0.064000003 2.7360001 -0.62099999
0.059999999 2.7379999 -0.62199998
0.050999999 2.74 -0.62300003
0.041999999 2.737 -0.62099999
0.034000002 2.7349999 -0.62099999
0.025 2.733 -0.62
0.017000001 2.7309999 -0.62
0.0080000004 2.733 -0.62
0.0040000002 2.7309999 -0.62
-0.0049999999 2.7349999 -0.62099999
-0.013 2.7290001 -0.61900002
0.41299999 3.402 0.115
-0.030999999 2.7290001 -0.61900002
-0.039000001 2.7290001 -0.61900002
-0.048 2.727 -0.61900002
-0.052000001 2.727 -0.61900002
0.331 3.1619999 0.122
-0.068999998 2.724 -0.61799997
-0.077 2.72 -0.61699998
0.34400001 3.4100001 0.115
0.34200001 3.5090001 0.113
0.33500001 3.562 0.111
0.32600001 3.5810001 0.111
0.32100001 3.661 0.109
0.31400001 3.6500001 0.109
0.30500001 3.6789999 0.109
0.292 3.668 0.109
0.27900001 3.6470001 0.109
0.26899999 3.6670001 0.109
0.257 3.652 0.109
0.245 3.645 0.109
0.237 3.6140001 0.11
0.23899999 3.8599999 0.104
0.193 3.2019999 0.121
0.169 2.921 0.12800001
-0.213 2.7 -0.61400002
0.141 2.914 0.12899999
-0.22499999 2.697 -0.61299998
-0.234 2.7019999 -0.61500001
-0.243 2.6989999 -0.61400002
-0.25099999 2.6960001 -0.61400002
-0.25999999 2.6989999 -0.61500001
0.079000004 2.79 0.132
-0.27700001 2.7030001 -0.616
0.07 2.7809999 0.132
-0.294 2.733 -0.625
0.066 2.793 0.132
0.057 2.7909999 0.132
0.048 2.779 0.132
0.039999999 2.7850001 0.132
0.030999999 2.763 0.133
0.022 2.7809999 0.132
0.013 2.7880001 0.132
0.0089999996 2.776 0.132
0.0 2.7839999 0.132
-0.034000002 2.767 0.133
0.31600001 2.8210001 -0.67400002
0.30599999 2.8150001 -0.67199999
0.29800001 2.8269999 -0.676
0.292 2.812 -0.671
-0.096000001 2.8940001 0.12899999
0.26800001 2.7550001 -0.65399998
0.25799999 2.7420001 -0.65100002
0.249 2.7390001 -0.64999998
0.23999999 2.7320001 -0.64700001
0.23100001 2.7309999 -0.64700001
0.226 2.7290001 -0.64600003
0.21699999 2.724 -0.64499998
0.208 2.7190001 -0.64300001
0.2 2.7260001 -0.64499998
0.191 2.717 -0.64200002
0.182 2.7079999 -0.639
0.17299999 2.7019999 -0.63800001
0.169 2.707 -0.639
0.16 2.7030001 -0.63800001
0.152 2.7079999 -0.639
0.14300001 2.698 -0.63599998
0.134 2.6949999 -0.63499999
0.125 2.6900001 -0.63300002
0.117 2.694 -0.634
0.113 2.694 -0.634
0.104 2.691 -0.63300002
0.094999999 2.6830001 -0.63099998
0.086999997 2.678 -0.63
0.078000002 2.6800001 -0.63
0.07 2.6919999 -0.63300002
0.061000001 2.6689999 -0.62699997
0.057 2.671 -0.62699997
0.048 2.661 -0.625
0.039999999 2.654 -0.62300003
0.032000002 2.665 -0.62599999
0.023 2.652 -0.62199998
0.015 2.652 -0.62199998
0.0060000001 2.6619999 -0.625
-0.0020000001 2.6600001 -0.62400001
-0.0060000001 2.6370001 -0.61799997
-0.015 2.635 -0.61699998
-0.023 2.642 -0.61900002
-0.030999999 2.6459999 -0.62
-0.039999999 2.6400001 -0.61900002
-0.048 2.632 -0.61699998
-0.056000002 2.6210001 -0.61299998
-0.059999999 2.6210001 -0.61299998
-0.068000004 2.6170001 -0.61199999
-0.077 2.6259999 -0.61500001
-0.085000001 2.6389999 -0.61900002
-0.093000002 2.6229999 -0.61500001
-0.101 2.619 -0.61299998
-0.11 2.625 -0.61500001
-0.114 2.6210001 -0.61400002
-0.122 2.622 -0.61500001
-0.13 2.6259999 -0.616
-0.138 2.6210001 -0.61500001
-0.146 2.619 -0.61400002
-0.155 2.6210001 -0.61500001
-0.163 2.618 -0.61400002
-0.167 2.618 -0.61400002
-0.175 2.6170001 -0.61400002
-0.184 2.619 -0.61500001
-0.191 2.6099999 -0.61199999
-0.2 2.6140001 -0.61299998
-0.208 2.6110001 -0.61299998
-0.21600001 2.6140001 -0.61400002
-0.22 2.6099999 -0.61299998
-0.228 2.609 -0.61299998
-0.237 2.609 -0.61299998
-0.245 2.6159999 -0.61500001
-0.25299999 2.609 -0.61299998
-0.26100001 2.6099999 -0.61400002
-0.27000001 2.6110001 -0.61500001
-0.28799999 2.7160001 -0.64399999
-0.28999999 2.6919999 -0.63800001
-0.30000001 2.7030001 -0.64099997
-0.308 2.694 -0.639
-0.315 2.684 -0.63599998
-0.31999999 2.6559999 -0.62900001
-0.34 2.7520001 -0.65600002
0.34 2.757 -0.685
0.333 2.7679999 -0.68800002
0.32800001 2.763 -0.68599999
0.32100001 2.7809999 -0.69099998
0.31299999 2.7950001 -0.69499999
0.30399999 2.7869999 -0.69199997
0.296 2.8010001 -0.69599998
0.289 2.813 -0.699
0.28099999 2.8310001 -0.704
0.271 2.767 -0.68599999
0.248 2.599 -0.63700002
0.23999999 2.608 -0.639
0.23199999 2.6010001 -0.63700002
0.223 2.5999999 -0.63599998
0.215 2.5929999 -0.634
0.206 2.589 -0.63300002
0.198 2.5880001 -0.63200003
0.19400001 2.592 -0.63300002
0.186 2.5929999 -0.63300002
0.177 2.5880001 -0.63099998
0.169 2.5899999 -0.63200003
0.161 2.589 -0.63099998
0.153 2.5799999 -0.62900001
0.145 2.5840001 -0.63
0.14 2.575 -0.62699997
0.132 2.5769999 -0.62800002
0.124 2.575 -0.62699997
0.116 2.5780001 -0.62800002
0.108 2.5680001 -0.625
0.1 2.5780001 -0.62800002
0.092 2.573 -0.62599999
0.086999997 2.5669999 -0.62400001
0.079000004 2.5599999 -0.62199998
0.071000002 2.572 -0.625
0.063000001 2.5599999 -0.62199998
0.055 2.5739999 -0.62599999
0.046999998 2.5569999 -0.62099999
0.039000001 2.5550001 -0.62
0.035 2.5550001 -0.62
0.027000001 2.559 -0.62099999
0.018999999 2.549 -0.61900002
0.011 2.553 -0.62
0.003 2.5510001 -0.61900002
-0.0049999999 2.5510001 -0.61900002
-0.013 2.553 -0.62
-0.017000001 2.5510001 -0.61900002
-0.025 2.546 -0.61799997
-0.033 2.5439999 -0.61699998
-0.041000001 2.5420001 -0.616
-0.048999999 2.536 -0.61500001
-0.057 2.5320001 -0.61400002
-0.064999998 2.5409999 -0.616
-0.072999999 2.5469999 -0.61799997
-0.077 2.543 -0.61699998
-0.083999999 2.529 -0.61299998
-0.093000002 2.536 -0.61500001
-0.1 2.53 -0.61400002
-0.108 2.526 -0.61299998
-0.116 2.5239999 -0.61199999
-0.124 2.5309999 -0.61400002
-0.12800001 2.5209999 -0.611
-0.13600001 2.5209999 -0.611
-0.046999998 2.7090001 0.148
-0.152 2.5220001 -0.61199999
-0.15899999 2.5139999 -0.61000001
-0.167 2.517 -0.611
-0.17399999 2.507 -0.60799998
-0.17900001 2.516 -0.611
-0.186 2.51 -0.60900003
-0.19499999 2.5190001 -0.61199999
-0.20299999 2.516 -0.611
-0.211 2.516 -0.611
-0.219 2.517 -0.61199999
-0.22499999 2.4949999 -0.60600001
-0.229 2.5009999 -0.60799998
-0.23899999 2.517 -0.61299998
-0.24600001 2.507 -0.61000001
-0.25299999 2.5020001 -0.60900003
-0.26199999 2.5090001 -0.611
-0.29100001 2.691 -0.66399997
-0.30899999 2.763 -0.68599999
-0.31299999 2.7290001 -0.676
-0.31600001 2.7190001 -0.67299998
-0.32499999 2.7219999 -0.67400002
-0.33399999 2.717 -0.67299998
-0.34200001 2.7130001 -0.67199999
-0.34999999 2.7130001 -0.67299998
0.329 2.8 -0.71700001
0.32600001 2.8080001 -0.72000003
0.31600001 2.802 -0.71700001
0.30399999 2.78 -0.71100003
0.296 2.783 -0.71100003
0.28799999 2.7909999 -0.713
0.27399999 2.7479999 -0.69999999
0.26800001 2.77 -0.70700002
0.26300001 2.7609999 -0.704
0.252 2.7449999 -0.699
0.243 2.74 -0.69700003
0.234 2.7390001 -0.69599998
0.226 2.7449999 -0.69800001
0.21699999 2.7379999 -0.69599998
0.208 2.737 -0.69499999
0.204 2.7349999 -0.69499999
0.19400001 2.7279999 -0.69199997
0.186 2.7249999 -0.69099998
0.177 2.7290001 -0.69199997
0.169 2.7279999 -0.69199997
0.16 2.723 -0.69
0.15099999 2.723 -0.69
0.147 2.72 -0.68900001
0.138 2.7219999 -0.68900001
0.13 2.723 -0.68900001
0.121 2.723 -0.68900001
0.112 2.7160001 -0.68699998
0.104 2.7160001 -0.68699998
0.094999999 2.7160001 -0.68699998
0.090000004 2.711 -0.68599999
0.082000002 2.7130001 -0.68599999
0.074000001 2.7130001 -0.68599999
0.064999998 2.7079999 -0.68400002
0.056000002 2.7060001 -0.68400002
0.048 2.7 -0.68199998
0.039000001 2.7060001 -0.68400002
0.030999999 2.704 -0.68300003
0.027000001 2.7079999 -0.68400002
0.017999999 2.6930001 -0.68000001
0.0089999996 2.701 -0.68199998
0.001 2.6949999 -0.68000001
-0.0080000004 2.701 -0.68199998
-0.016000001 2.6949999 -0.68000001
-0.025 2.687 -0.67799997
-0.028999999 2.6830001 -0.67699999
-0.037 2.677 -0.67500001
-0.046 2.6889999 -0.67900002
-0.054000001 2.6830001 -0.67699999
-0.061999999 2.6789999 -0.676
-0.071000002 2.6789999 -0.676
-0.079000004 2.675 -0.67500001
-0.082999997 2.6730001 -0.67400002
-0.092 2.6700001 -0.67400002
-0.101 2.691 -0.68000001
-0.108 2.668 -0.67299998
-0.117 2.6619999 -0.671
-0.125 2.675 -0.67500001
-0.133 2.661 -0.671
-0.138 2.6719999 -0.67500001
-0.147 2.678 -0.676
-0.155 2.668 -0.67400002
-0.163 2.6589999 -0.671
-0.171 2.665 -0.67299998
-0.17900001 2.6559999 -0.671
-0.18799999 2.6600001 -0.67199999
-0.197 2.6719999 -0.676
-0.2 2.6589999 -0.67199999
-0.20900001 2.658 -0.67199999
-0.21699999 2.6570001 -0.67199999
-0.22499999 2.651 -0.67000002
-0.234 2.654 -0.671
-0.242 2.661 -0.67400002
-0.25 2.645 -0.66900003
-0.25400001 2.652 -0.671
-0.26300001 2.6530001 -0.67199999
-0.27200001 2.664 -0.67500001
-0.244 2.8310001 0.146
-0.294 2.71 -0.68900001
-0.30199999 2.707 -0.68900001
-0.30700001 2.674 -0.67900002
-0.31099999 2.6689999 -0.67799997
-0.31900001 2.6659999 -0.67799997
-0.331 2.698 -0.68699998
-0.338 2.681 -0.68300003
0.59600002 2.7550001 -0.75199997
0.58600003 2.7520001 -0.75
0.40799999 2.724 -0.73199999
0.37400001 2.7320001 -0.73299998
0.373 2.7539999 -0.73900002
0.36399999 2.7550001 -0.73900002
0.354 2.7409999 -0.73400003
0.345 2.74 -0.73400003
0.33700001 2.747 -0.736
0.32800001 2.7460001 -0.73500001
0.32100001 2.76 -0.73900002
0.31200001 2.7650001 -0.74000001
0.31 2.7809999 -0.745
0.303 2.8010001 -0.75099999
0.29499999 2.809 -0.75300002
0.285 2.8050001 -0.75199997
0.27700001 2.8150001 -0.755
0.266 2.7869999 -0.74599999
0.257 2.7820001 -0.74400002
0.252 2.7750001 -0.74199998
0.242 2.766 -0.73900002
0.234 2.767 -0.73900002
0.22499999 2.7720001 -0.74000001
0.21600001 2.7590001 -0.736
0.207 2.7620001 -0.736
0.199 2.7679999 -0.73799998
0.19400001 2.7679999 -0.73799998
0.186 2.767 -0.73699999
0.177 2.7639999 -0.736
0.168 2.7639999 -0.736
0.15899999 2.767 -0.73699999
0.15000001 2.76 -0.73400003
0.141 2.7490001 -0.73100001
0.13699999 2.753 -0.73199999
0.12800001 2.7490001 -0.73100001
0.12 2.7460001 -0.73000002
0.111 2.75 -0.73100001
0.102 2.7479999 -0.73000002
0.093999997 2.7390001 -0.727
0.085000001 2.7409999 -0.72799999
0.079999998 2.7320001 -0.72500002
0.071999997 2.7379999 -0.727
0.063000001 2.74 -0.727
0.055 2.7379999 -0.727
0.046 2.723 -0.722
0.037999999 2.727 -0.72299999
0.028999999 2.7290001 -0.72399998
0.025 2.7160001 -0.72000003
0.016000001 2.727 -0.72299999
0.0080000004 2.71 -0.71799999
-0.001 2.7219999 -0.72100002
-0.0089999996 2.7179999 -0.72000003
-0.037999999 2.71 0.168
-0.027000001 2.7290001 -0.72399998
-0.035 2.7119999 -0.71899998
-0.039000001 2.6960001 -0.71399999
-0.046999998 2.6919999 -0.713
-0.055 2.6689999 -0.70599997
-0.064000003 2.6849999 -0.70999998
-0.071999997 2.6800001 -0.70899999
-0.079999998 2.6670001 -0.70499998
-0.089000002 2.678 -0.708
-0.093000002 2.665 -0.704
-0.101 2.6659999 -0.70499998
-0.109 2.6559999 -0.70200002
-0.117 2.6559999 -0.70200002
-0.125 2.648 -0.69999999
-0.134 2.651 -0.70099998
-0.142 2.6470001 -0.69999999
-0.147 2.668 -0.70599997
-0.156 2.6689999 -0.70700002
-0.163 2.6459999 -0.69999999
-0.171 2.645 -0.69999999
-0.18000001 2.658 -0.704
-0.18700001 2.642 -0.699
-0.19599999 2.6440001 -0.69999999
-0.2 2.6429999 -0.69999999
-0.208 2.645 -0.69999999
-0.21699999 2.642 -0.69999999
-0.22499999 2.6429999 -0.69999999
-0.233 2.641 -0.69999999
-0.242 2.642 -0.69999999
-0.25 2.6429999 -0.70099998
-0.255 2.6440001 -0.70099998
-0.26300001 2.6440001 -0.70099998
-0.27200001 2.6500001 -0.704
-0.28200001 2.6670001 -0.70899999
-0.289 2.652 -0.70499998
-0.29899999 2.6630001 -0.708
-0.30700001 2.664 -0.70899999
-0.317 2.707 -0.72299999
-0.33399999 2.7720001 -0.74299997
-0.34 2.7520001 -0.73699999
-0.35100001 2.766 -0.74199998
-0.35600001 2.7349999 -0.73299998
-0.36399999 2.73 -0.73199999
-0.37099999 2.723 -0.73000002
-0.38100001 2.7260001 -0.73100001
-0.38499999 2.7290001 -0.73199999
0.31099999 2.8310001 -0.79100001
0.303 2.8340001 -0.79100001
0.29300001 2.8329999 -0.79100001
0.28600001 2.848 -0.79500002
0.27700001 2.845 -0.79400003
0.26199999 2.7939999 -0.77700001
0.241 2.632 -0.72500002
0.233 2.632 -0.72500002
0.22499999 2.631 -0.72399998
0.21699999 2.6340001 -0.72500002
0.208 2.635 -0.72500002
0.2 2.6329999 -0.72399998
0.192 2.6359999 -0.72500002
0.18700001 2.6340001 -0.72399998
0.17900001 2.6370001 -0.72500002
0.171 2.6389999 -0.72600001
0.163 2.6359999 -0.72399998
0.154 2.638 -0.72500002
0.146 2.6370001 -0.72399998
0.138 2.6370001 -0.72399998
0.134 2.6359999 -0.72399998
0.125 2.6359999 -0.72399998
0.117 2.6359999 -0.72399998
0.108 2.6329999 -0.72299999
0.1 2.6329999 -0.72299999
0.092 2.635 -0.72299999
0.083999999 2.6300001 -0.72100002
0.075000003 2.628 -0.72100002
0.071000002 2.6270001 -0.72000003
0.063000001 2.6289999 -0.72100002
0.055 2.6289999 -0.72100002
0.046 2.6229999 -0.71899998
0.037999999 2.6270001 -0.72000003
0.029999999 2.6240001 -0.71899998
0.021 2.6199999 -0.71799999
0.017000001 2.622 -0.71799999
0.0089999996 2.622 -0.71799999
0.001 2.6240001 -0.71899998
-0.0070000002 2.6240001 -0.71899998
-0.016000001 2.6259999 -0.72000003
-0.024 2.6159999 -0.71600002
-0.055 2.7290001 0.167
-0.035999998 2.608 -0.71399999
-0.044 2.6140001 -0.71600002
-0.052999999 2.6059999 -0.713
-0.061000001 2.6059999 -0.713
-0.068999998 2.6059999 -0.713
-0.077 2.6110001 -0.71499997
-0.086000003 2.6129999 -0.71600002
-0.089000002 2.599 -0.71200001
-0.097000003 2.599 -0.71200001
-0.105 2.5910001 -0.70899999
-0.114 2.596 -0.71100003
-0.122 2.5880001 -0.70899999
-0.13 2.5940001 -0.70999998
-0.138 2.5899999 -0.70899999
-0.141 2.576 -0.70499998
-0.149 2.5739999 -0.704
-0.15700001 2.5639999 -0.70099998
-0.16500001 2.5710001 -0.704
-0.17299999 2.553 -0.69800001
-0.182 2.5739999 -0.70499998
-0.19 2.575 -0.70499998
-0.19400001 2.5710001 -0.704
-0.20200001 2.566 -0.70300001
-0.20900001 2.5539999 -0.699
-0.21699999 2.552 -0.699
-0.226 2.566 -0.704
-0.233 2.556 -0.70099998
-0.241 2.5569999 -0.70099998
-0.25 2.562 -0.70300001
-0.059999999 2.7409999 0.167
-0.273 2.677 -0.74000001
-0.28200001 2.681 -0.74199998
-0.27900001 2.5710001 -0.70700002
-0.28799999 2.573 -0.708
-0.31600001 2.7679999 -0.77100003
-0.32300001 2.7479999 -0.76499999
-0.32800001 2.7550001 -0.76700002
-0.336 2.744 -0.764
-0.34299999 2.7279999 -0.759
-0.35100001 2.723 -0.75800002
0.31600001 2.7520001 -0.79799998
0.308 2.756 -0.79900002
0.30399999 2.8050001 -0.815
0.294 2.796 -0.81099999
0.28799999 2.78 -0.80599999
0.28200001 2.813 -0.81599998
0.27399999 2.8269999 -0.82099998
0.26499999 2.816 -0.81699997
0.24699999 2.711 -0.78200001
0.23100001 2.6110001 -0.74900001
0.34599999 3.6300001 -0.248
0.21799999 2.6110001 -0.74800003
0.33500001 3.6400001 -0.25
0.32699999 3.6110001 -0.24600001
0.31299999 3.5829999 -0.242
0.30199999 3.582 -0.242
0.28999999 3.579 -0.242
0.27900001 3.5780001 -0.241
0.26899999 3.5899999 -0.243
0.25799999 3.5969999 -0.243
0.25299999 3.619 -0.24600001
0.243 3.6400001 -0.249
0.132 2.605 -0.74400002
0.123 2.6070001 -0.745
0.115 2.596 -0.741
0.111 2.6040001 -0.74400002
0.103 2.6059999 -0.74400002
0.094999999 2.6029999 -0.74299997
0.086999997 2.6070001 -0.74400002
0.078000002 2.6070001 -0.74400002
0.07 2.6040001 -0.74299997
0.061999999 2.598 -0.741
0.057999998 2.5940001 -0.74000001
0.050000001 2.595 -0.74000001
0.041000001 2.5910001 -0.73900002
0.033 2.595 -0.74000001
0.025 2.5840001 -0.736
0.017000001 2.5869999 -0.73699999
0.0089999996 2.586 -0.73699999
0.0049999999 2.582 -0.73500001
-0.003 2.5929999 -0.73900002
-0.011 2.5799999 -0.73500001
-0.02 2.5840001 -0.736
-0.027000001 2.5739999 -0.73299998
-0.035999998 2.5799999 -0.73500001
-0.044 2.5829999 -0.736
-0.052000001 2.5810001 -0.73500001
-0.056000002 2.5869999 -0.73699999
-0.063000001 2.562 -0.72899997
-0.075999998 2.7190001 0.167
-0.064999998 2.8789999 -0.154
-0.088 2.573 -0.73299998
-0.074000001 2.8829999 -0.155
-0.104 2.5610001 -0.72899997
-0.097000003 2.8940001 -0.156
-0.116 2.5639999 -0.73000002
-0.107 2.9059999 -0.15800001
-0.132 2.5539999 -0.727
-0.114 2.8599999 -0.152
0.292 2.592 0.20200001
-0.13600001 2.9360001 -0.162
-0.147 2.9690001 -0.16599999
-0.15899999 3.007 -0.17
0.35299999 3.635 0.20100001
0.34099999 3.6329999 0.20100001
0.331 3.6500001 0.20100001
0.32600001 3.6500001 0.20100001
0.315 3.665 0.20100001
0.303 3.6619999 0.20100001
0.29300001 3.675 0.20100001
0.27900001 3.642 0.20100001
0.26699999 3.6370001 0.20100001
0.257 3.664 0.20100001
0.242 3.5139999 0.20100001
0.23999999 3.6570001 0.20100001
-0.264 2.543 -0.727
-0.27200001 2.5450001 -0.72799999
-0.29499999 2.6700001 -0.76999998
-0.308 2.7090001 -0.78299999
-0.31900001 2.7249999 -0.78899997
-0.33000001 2.74 -0.79400003
-0.336 2.7190001 -0.78799999
-0.34200001 2.701 -0.78200001
-0.34599999 2.7 -0.78200001
0.078000002 2.5409999 0.20299999
0.30199999 2.8329999 -0.85000002
0.071000002 2.5599999 0.20200001
0.289 2.8340001 -0.85000002
0.28 2.835 -0.85000002
0.27200001 2.845 -0.85299999
0.257 2.786 -0.833
0.24699999 2.779 -0.82999998
0.23800001 2.776 -0.829
0.234 2.776 -0.829
0.22400001 2.7679999 -0.82599998
0.21600001 2.7720001 -0.82700002
0.207 2.7750001 -0.82800001
0.198 2.7679999 -0.82499999
0.189 2.7609999 -0.82300001
0.18000001 2.7650001 -0.824
0.176 2.7650001 -0.824
0.167 2.76 -0.82200003
0.15800001 2.7609999 -0.82200003
0.149 2.757 -0.82099998
0.14 2.7520001 -0.81900001
0.132 2.7550001 -0.81900001
0.123 2.747 -0.81699997
0.119 2.7509999 -0.81800002
0.11 2.7460001 -0.81599998
0.101 2.7390001 -0.81300002
0.092 2.7390001 -0.81300002
0.082999997 2.734 -0.81199998
0.075000003 2.73 -0.81
0.066 2.7379999 -0.81300002
0.057999998 2.7379999 -0.81300002
0.052999999 2.7290001 -0.81
0.044 2.7190001 -0.80599999
0.035999998 2.7119999 -0.80400002
0.027000001 2.7219999 -0.80699998
0.018999999 2.7179999 -0.80599999
0.0099999998 2.7160001 -0.80500001
0.001 2.7079999 -0.80299997
-0.003 2.7079999 -0.80299997
-0.011 2.697 -0.79900002
-0.02 2.7049999 -0.801
-0.028000001 2.6949999 -0.79799998
-0.037 2.704 -0.801
-0.045000002 2.6989999 -0.79900002
-0.054000001 2.6800001 -0.79299998
-0.057999998 2.674 -0.79100001
-0.066 2.677 -0.792
-0.075000003 2.6919999 -0.79699999
-0.082999997 2.664 -0.78799999
-0.090999998 2.675 -0.792
-0.1 2.674 -0.792
-0.108 2.674 -0.792
-0.112 2.6659999 -0.78899997
-0.121 2.677 -0.79299998
-0.12899999 2.6789999 -0.79400003
-0.138 2.675 -0.792
-0.146 2.6719999 -0.792
-0.153 2.6530001 -0.78500003
-0.161 2.6389999 -0.78100002
-0.16599999 2.6559999 -0.78600001
-0.17299999 2.6370001 -0.77999997
-0.18099999 2.632 -0.77899998
-0.19 2.6389999 -0.78100002
-0.199 2.642 -0.78299999
-0.207 2.6340001 -0.77999997
-0.215 2.6329999 -0.77999997
-0.223 2.631 -0.77899998
-0.227 2.6289999 -0.77899998
-0.235 2.628 -0.77899998
-0.244 2.6289999 -0.77899998
-0.252 2.632 -0.78100002
-0.26100001 2.6370001 -0.78299999
-0.27000001 2.6459999 -0.78600001
-0.287 2.7309999 -0.815
-0.28999999 2.723 -0.81300002
-0.29699999 2.704 -0.80599999
-0.30599999 2.7119999 -0.81
-0.31200001 2.6830001 -0.80000001
-0.32100001 2.691 -0.80299997
-0.329 2.681 -0.80000001
-0.33899999 2.6930001 -0.80400002
-0.34200001 2.687 -0.80299997
0.32600001 2.786 -0.86400002
0.31600001 2.776 -0.86000001
0.30899999 2.7939999 -0.866
0.301 2.8 -0.86799997
0.29300001 2.8139999 -0.87300003
0.28400001 2.8080001 -0.87
0.27500001 2.812 -0.87199998
0.271 2.813 -0.87199998
0.26300001 2.8269999 -0.87599999
0.255 2.842 -0.88099998
0.23100001 2.6440001 -0.81099999
0.221 2.6199999 -0.80299997
0.212 2.608 -0.79799998
0.20299999 2.6099999 -0.79900002
0.199 2.609 -0.79799998
0.191 2.609 -0.79799998
0.183 2.612 -0.79900002
0.175 2.6099999 -0.79799998
0.167 2.6129999 -0.79900002
0.15800001 2.6129999 -0.79900002
0.15000001 2.6159999 -0.79900002
0.146 2.612 -0.79799998
0.138 2.6140001 -0.79900002
0.13 2.6129999 -0.79799998
0.121 2.6110001 -0.79699999
0.113 2.612 -0.79699999
0.105 2.6140001 -0.79799998
0.097000003 2.612 -0.79699999
0.092 2.6110001 -0.79699999
0.083999999 2.6129999 -0.79699999
0.075999998 2.615 -0.79799998
0.068000004 2.6129999 -0.79699999
0.059999999 2.6099999 -0.796
0.050999999 2.6140001 -0.79699999
0.043000001 2.608 -0.79500002
0.039000001 2.612 -0.79699999
0.030999999 2.6070001 -0.79500002
0.023 2.608 -0.79500002
0.015 2.609 -0.79500002
0.0060000001 2.612 -0.79699999
-0.0020000001 2.6029999 -0.79299998
-0.0099999998 2.6010001 -0.79299998
-0.017999999 2.6070001 -0.79500002
-0.022 2.6029999 -0.79299998
-0.030999999 2.608 -0.79500002
-0.039000001 2.6010001 -0.79299998
-0.046999998 2.599 -0.792
-0.055 2.599 -0.792
-0.063000001 2.598 -0.792
-0.071000002 2.596 -0.792
-0.075000003 2.596 -0.792
-0.082999997 2.598 -0.792
-0.090999998 2.5880001 -0.78899997
-0.098999999 2.5880001 -0.78899997
-0.108 2.5969999 -0.792
-0.116 2.5910001 -0.79000002
-0.124 2.592 -0.79100001
-0.12800001 2.585 -0.78799999
-0.13600001 2.582 -0.78799999
-0.145 2.595 -0.792
-0.152 2.5869999 -0.79000002
-0.16 2.585 -0.78899997
-0.169 2.5940001 -0.792
-0.176 2.5799999 -0.78799999
-0.18000001 2.576 -0.78600001
-0.18799999 2.5810001 -0.78799999
-0.19599999 2.5780001 -0.78799999
-0.205 2.5829999 -0.79000002
-0.214 2.5880001 -0.792
-0.22 2.5710001 -0.78600001
-0.228 2.5699999 -0.78600001
-0.237 2.579 -0.78899997
-0.241 2.575 -0.78799999
-0.249 2.576 -0.78799999
-0.25799999 2.582 -0.79100001
-0.27599999 2.668 -0.82099998
-0.292 2.7290001 -0.84299999
-0.303 2.7520001 -0.852
-0.31 2.74 -0.84799999
-0.315 2.7449999 -0.85000002
-0.322 2.727 -0.84399998
-0.331 2.734 -0.84600002
-0.34 2.737 -0.84799999
-0.34900001 2.737 -0.84799999
0.30399999 2.8759999 -0.91900003
0.294 2.865 -0.91500002
0.285 2.8699999 -0.91600001
0.27900001 2.8570001 -0.91100001
0.266 2.813 -0.89499998
0.26199999 2.865 -0.91299999
0.249 2.826 -0.89899999
0.23899999 2.8080001 -0.89200002
0.229 2.8050001 -0.89099997
0.219 2.783 -0.88300002
0.214 2.78 -0.88099998
0.206 2.7920001 -0.88499999
0.19599999 2.7750001 -0.87900001
0.18799999 2.78 -0.88099998
0.17900001 2.779 -0.88
0.168 2.7579999 -0.87300003
0.16 2.763 -0.87400001
0.156 2.767 -0.875
0.147 2.7579999 -0.87199998
0.138 2.7579999 -0.87199998
0.12899999 2.7590001 -0.87199998
0.121 2.7609999 -0.87300003
0.112 2.7579999 -0.87099999
0.103 2.76 -0.87199998
0.094999999 2.76 -0.87199998
0.090000004 2.7550001 -0.87
0.082000002 2.757 -0.87099999
0.072999999 2.7550001 -0.87
0.064000003 2.7550001 -0.87
0.055 2.7539999 -0.86900002
0.046999998 2.756 -0.87
0.037999999 2.7539999 -0.86900002
0.034000002 2.7539999 -0.86900002
0.025 2.7520001 -0.86900002
0.016000001 2.7520001 -0.86900002
0.0080000004 2.75 -0.86799997
-0.001 2.75 -0.86799997
-0.0089999996 2.7520001 -0.86900002
-0.017999999 2.75 -0.86799997
-0.022 2.7409999 -0.86500001
-0.030999999 2.7449999 -0.866
-0.039999999 2.75 -0.86799997
-0.048 2.7479999 -0.86699998
-0.057 2.74 -0.86500001
-0.066 2.7509999 -0.86900002
-0.074000001 2.7379999 -0.86400002
-0.078000002 2.7379999 -0.86400002
-0.086999997 2.743 -0.866
-0.096000001 2.737 -0.86400002
-0.104 2.733 -0.86299998
-0.113 2.7390001 -0.86500001
-0.121 2.734 -0.86299998
-0.13 2.7360001 -0.86400002
-0.139 2.7390001 -0.86500001
-0.14300001 2.733 -0.86299998
-0.15099999 2.7309999 -0.86299998
-0.16 2.734 -0.86400002
0.017999999 2.72 0.167
-0.177 2.7279999 -0.86199999
-0.186 2.7290001 -0.86299998
-0.19400001 2.727 -0.86199999
-0.198 2.724 -0.861
-0.207 2.724 -0.861
-0.215 2.7119999 -0.85699999
-0.22400001 2.724 -0.86199999
-0.233 2.724 -0.86199999
-0.241 2.717 -0.86000001
-0.25 2.7279999 -0.86400002
-0.255 2.737 -0.86699998
-0.266 2.766 -0.87800002
-0.27599999 2.7780001 -0.88300002
-0.285 2.7809999 -0.884
-0.294 2.7739999 -0.88200003
-0.30000001 2.7550001 -0.875
-0.30899999 2.7520001 -0.875
-0.31600001 2.7739999 -0.88300002
-0.32300001 2.7650001 -0.88
-0.33199999 2.766 -0.88099998
-0.34200001 2.7709999 -0.88300002
-0.352 2.783 -0.88700002
0.382 2.783 -0.91600001
0.37 2.7590001 -0.90700001
0.366 2.767 -0.90899998
0.35699999 2.7620001 -0.90700001
0.34900001 2.7709999 -0.91000003
0.33899999 2.7590001 -0.90499997
0.33199999 2.773 -0.91000003
0.32100001 2.7590001 -0.90499997
0.31299999 2.766 -0.90700001
0.30899999 2.7639999 -0.90600002
0.301 2.7690001 -0.90700001
0.29300001 2.779 -0.91100001
0.28400001 2.78 -0.91100001
0.27599999 2.7850001 -0.912
0.266 2.7780001 -0.90899998
0.259 2.8010001 -0.91799998
0.25099999 2.806 -0.91900003
0.24699999 2.8169999 -0.92299998
0.23800001 2.813 -0.921
0.228 2.802 -0.917
0.22 2.816 -0.92199999
0.213 2.8410001 -0.93099999
0.20299999 2.8150001 -0.921
0.191 2.7750001 -0.90600002
0.18700001 2.7750001 -0.90600002
0.177 2.7609999 -0.90100002
0.168 2.7539999 -0.898
0.16 2.7539999 -0.898
0.15099999 2.7449999 -0.89399999
0.142 2.7360001 -0.89099997
0.134 2.7609999 -0.89999998
0.12899999 2.743 -0.89300001
0.12 2.734 -0.889
0.111 2.734 -0.889
0.103 2.734 -0.889
0.093999997 2.7379999 -0.89099997
0.086000003 2.7349999 -0.889
0.077 2.737 -0.88999999
0.072999999 2.7349999 -0.889
0.064000003 2.734 -0.889
0.056000002 2.7360001 -0.889
0.046999998 2.7379999 -0.88999999
0.037999999 2.7379999 -0.88999999
-0.068000004 2.7249999 0.167
0.021 2.733 -0.88800001
0.017000001 2.734 -0.889
0.0080000004 2.733 -0.88800001
-0.0 2.7360001 -0.889
-0.0089999996 2.7379999 -0.88999999
-0.017000001 2.7360001 -0.889
-0.026000001 2.727 -0.88599998
-0.035 2.734 -0.889
-0.039000001 2.7320001 -0.88800001
-0.046999998 2.73 -0.88700002
-0.056000002 2.734 -0.889
-0.083999999 2.7030001 0.168
-0.072999999 2.7279999 -0.88700002
-0.082000002 2.7279999 -0.88700002
-0.090000004 2.727 -0.88700002
-0.098999999 2.7309999 -0.88800001
-0.103 2.7290001 -0.88700002
-0.093000002 2.72 0.167
-0.19400001 2.6819999 0.149
-0.12800001 2.72 -0.88499999
-0.085000001 2.7149999 -0.48199999
-0.234 2.7590001 0.147
-0.154 2.723 -0.88599998
-0.15800001 2.717 -0.884
-0.167 2.72 -0.88499999
-0.175 2.7119999 -0.88300002
-0.184 2.7190001 -0.88499999
-0.193 2.72 -0.88599998
-0.20100001 2.7160001 -0.88499999
-0.11 2.7019999 0.168
-0.213 2.7049999 -0.88099998
-0.223 2.7160001 -0.88499999
-0.23100001 2.7119999 -0.884
-0.23899999 2.711 -0.884
-0.248 2.714 -0.88499999
-0.255 2.7 -0.88
-0.26499999 2.7119999 -0.88499999
-0.27000001 2.7149999 -0.88700002
-0.27900001 2.72 -0.889
-0.29100001 2.7509999 -0.90100002
-0.30000001 2.7520001 -0.90100002
-0.122 2.691 0.168
-0.31299999 2.7149999 -0.88800001
-0.32100001 2.714 -0.88800001
-0.32600001 2.7130001 -0.88800001
-0.33500001 2.721 -0.89200002
-0.34200001 2.7090001 -0.88700002
-0.34900001 2.6930001 -0.88200003
-0.361 2.7179999 -0.89200002
0.333 3.5139999 -1.222
0.31999999 3.4979999 -1.215
0.252 2.8559999 -0.97000003
0.237 2.7920001 -0.94499999
0.228 2.7939999 -0.94599998
0.22 2.8010001 -0.94800001
0.215 2.848 -0.96600002
0.20900001 2.878 -0.977
0.192 2.786 -0.94199997
0.17900001 2.674 -0.89899999
0.169 2.651 -0.88999999
0.16 2.6400001 -0.88599998
0.152 2.6400001 -0.88599998
0.14399999 2.6429999 -0.88599998
0.134 2.6170001 -0.87699997
0.126 2.632 -0.88200003
0.122 2.6210001 -0.87800002
0.113 2.6110001 -0.87400001
0.106 2.635 -0.88300002
0.096000001 2.6129999 -0.87400001
0.088 2.612 -0.87400001
0.079999998 2.619 -0.87699997
0.071000002 2.605 -0.87099999
0.067000002 2.5880001 -0.86400002
0.059 2.6099999 -0.87300003
0.050999999 2.6010001 -0.86900002
0.041999999 2.5810001 -0.86199999
0.034000002 2.5739999 -0.85900003
0.026000001 2.5940001 -0.86699998
0.018999999 2.632 -0.88099998
0.0099999998 2.6059999 -0.87099999
0.0060000001 2.5910001 -0.86500001
-0.003 2.566 -0.85600001
-0.011 2.566 -0.85600001
-0.018999999 2.5829999 -0.86199999
-0.027000001 2.566 -0.85600001
-0.035 2.5680001 -0.85699999
-0.043000001 2.5680001 -0.85699999
-0.046999998 2.566 -0.85600001
-0.055 2.566 -0.85600001
-0.063000001 2.5669999 -0.85699999
-0.071000002 2.5650001 -0.85600001
-0.079000004 2.5650001 -0.85600001
-0.086999997 2.5650001 -0.85600001
-0.093999997 2.7179999 -0.61699998
-0.098999999 2.566 -0.85699999
-0.107 2.5639999 -0.85600001
-0.115 2.566 -0.85699999
-0.124 2.5650001 -0.85699999
-0.132 2.563 -0.85600001
-0.14 2.562 -0.85600001
-0.148 2.562 -0.85600001
-0.152 2.562 -0.85600001
-0.16 2.563 -0.85699999
-0.168 2.5650001 -0.85699999
-0.176 2.5599999 -0.85600001
-0.184 2.5599999 -0.85600001
-0.192 2.559 -0.85600001
-0.2 2.5580001 -0.85600001
-0.204 2.5580001 -0.85600001
-0.212 2.5580001 -0.85600001
-0.22 2.5550001 -0.85500002
-0.248 2.664 0.149
-0.25299999 2.766 -0.93599999
-0.259 2.73 -0.92299998
-0.26899999 2.74 -0.92699999
-0.27399999 2.747 -0.93000001
-0.28099999 2.737 -0.926
-0.287 2.704 -0.91399997
-0.289 2.6440001 -0.89099997
-0.30500001 2.7160001 -0.91900003
0.28799999 2.859 -1.0039999
0.27399999 2.793 -0.977
0.27700001 2.9349999 -1.033
0.26899999 2.9579999 -1.041
0.255 2.892 -1.015
0.33899999 3.5940001 -0.001
0.333 3.586 -0.001
0.32300001 3.6070001 -0.0020000001
0.31299999 3.618 -0.0020000001
0.301 3.615 -0.0020000001
0.28999999 3.618 -0.0020000001
0.27700001 3.599 -0.001
0.264 3.5840001 -0.0
0.17299999 2.809 -0.98000002
0.168 2.809 -0.98000002
0.156 2.73 -0.949
0.146 2.7079999 -0.94
0.138 2.7079999 -0.94
0.12899999 2.694 -0.93400002
0.142 2.767 0.046
0.112 2.691 -0.93300003
0.107 2.6930001 -0.93400002
0.098999999 2.6930001 -0.93400002
0.090000004 2.6900001 -0.93199998
0.082000002 2.6919999 -0.93300003
0.074000001 2.694 -0.93400002
0.090999998 2.9130001 0.037999999
0.057 2.694 -0.93400002
0.052000001 2.6930001 -0.93300003
0.046 2.779 0.046
0.037 2.783 0.045000002
0.027000001 2.6930001 -0.93300003
0.028999999 2.783 0.045000002
0.02 2.7969999 0.045000002
0.0070000002 2.7869999 0.045000002
-0.0020000001 2.7249999 0.048999999
-0.011 2.7249999 0.048999999
-0.02 2.7249999 0.048999999
-0.028000001 2.7130001 0.048999999
-0.035999998 2.6930001 -0.93300003
-0.045000002 2.6889999 -0.93199998
-0.052999999 2.6889999 -0.93199998
-0.057 2.687 -0.93099999
-0.066 2.6889999 -0.93199998
-0.074000001 2.6860001 -0.93099999
-0.082999997 2.698 0.050000001
-0.090999998 2.684 -0.93000001
-0.092 2.7060001 0.050000001
-0.108 2.6830001 -0.93000001
-0.1 2.6930001 0.050000001
-0.106 2.7490001 0.046999998
-0.12899999 2.681 -0.92900002
-0.13699999 2.678 -0.92900002
-0.146 2.678 -0.92900002
-0.154 2.674 -0.92699999
-0.163 2.681 -0.93000001
-0.171 2.675 -0.92799997
-0.175 2.6760001 -0.92900002
-0.183 2.6719999 -0.92699999
-0.192 2.675 -0.92900002
-0.2 2.671 -0.92699999
-0.20900001 2.677 -0.93000001
-0.21799999 2.6800001 -0.93199998
-0.23 2.724 -0.949
-0.235 2.7309999 -0.95200002
-0.245 2.7379999 -0.95499998
-0.25299999 2.734 -0.95300001
-0.25999999 2.72 -0.94800001
-0.27000001 2.734 -0.954
-0.271 2.7520001 0.046999998
-0.285 2.7149999 -0.94800001
-0.27700001 2.7709999 0.045000002
-0.29800001 2.71 -0.94599998
-0.30500001 2.698 -0.94199997
0.36500001 3.6619999 -1.364
0.34299999 3.569 -1.326
0.331 3.563 -1.323
0.31900001 3.553 -1.319
0.308 3.5539999 -1.319
0.30199999 3.5469999 -1.316
0.28999999 3.5439999 -1.314
0.278 3.5369999 -1.311
0.266 3.5250001 -1.306
-0.405 2.802 0.043000001
0.18700001 2.78 -1.0039999
0.178 2.786 -1.007
0.175 2.799 -1.012
0.16599999 2.7939999 -1.01
0.15899999 2.8239999 -1.021
0.147 2.773 -1.001
0.14 2.799 -1.011
0.131 2.8010001 -1.012
0.119 2.744 -0.98900002
0.11 2.6440001 -0.94800001
0.1 2.6240001 -0.94
0.092 2.628 -0.94199997
0.085000001 2.6400001 -0.94599998
0.075999998 2.638 -0.94499999
0.067000002 2.6199999 -0.93800002
0.059 2.6159999 -0.93599999
0.055 2.6159999 -0.93599999
0.046999998 2.615 -0.93599999
0.037999999 2.6129999 -0.935
0.029999999 2.6129999 -0.935
0.022 2.6129999 -0.935
0.014 2.608 -0.93300003
0.0049999999 2.615 -0.93599999
-0.003 2.612 -0.93400002
-0.0070000002 2.602 -0.93000001
-0.28600001 2.8069999 0.146
-0.023 2.5969999 -0.92799997
-0.26699999 2.6900001 0.148
-0.039999999 2.598 -0.92900002
-0.048 2.5999999 -0.93000001
-0.056000002 2.5999999 -0.93000001
-0.059999999 2.598 -0.92900002
-0.068000004 2.596 -0.92799997
-0.075999998 2.599 -0.93000001
-0.083999999 2.5969999 -0.92900002
-0.093000002 2.599 -0.93000001
-0.101 2.5969999 -0.92900002
-0.109 2.5940001 -0.92799997
-0.113 2.5899999 -0.92699999
-0.121 2.592 -0.92699999
-0.12899999 2.5899999 -0.92699999
-0.13699999 2.5910001 -0.92699999
-0.146 2.5929999 -0.92799997
-0.15800001 2.677 -0.96200001
-0.167 2.681 -0.96399999
-0.177 2.7909999 -1.0089999
-0.184 2.7590001 -0.99599999
-0.193 2.766 -0.99900001
-0.20200001 2.766 -0.99900001
-0.20900001 2.7539999 -0.995
-0.21699999 2.7349999 -0.98699999
-0.22499999 2.727 -0.98400003
-0.23100001 2.747 -0.99199998
-0.23899999 2.74 -0.99000001
0.33399999 3.388 -1.288
0.33199999 3.49 -1.33
0.322 3.5079999 -1.337
0.31099999 3.503 -1.335
0.29899999 3.4990001 -1.3329999
0.28600001 3.47 -1.3200001
0.27599999 3.4760001 -1.323
0.26199999 3.4400001 -1.307
0.25600001 3.4349999 -1.3049999
0.23999999 3.3469999 -1.268
0.22400001 3.256 -1.23
0.20100001 3.043 -1.142
0.18700001 2.96 -1.107
0.177 2.9389999 -1.098
0.16 2.78 -1.033
0.155 2.777 -1.031
0.147 2.7939999 -1.038
0.139 2.8069999 -1.043
0.13 2.802 -1.041
0.121 2.806 -1.043
0.112 2.803 -1.041
0.104 2.813 -1.045
0.098999999 2.813 -1.045
0.090999998 2.819 -1.0470001
0.082000002 2.819 -1.0470001
0.072999999 2.8280001 -1.051
0.063000001 2.74 -1.0140001
0.054000001 2.734 -1.012
0.045000002 2.6440001 -0.97500002
0.041000001 2.6440001 -0.97500002
0.033 2.6329999 -0.97000003
0.024 2.642 -0.97399998
0.016000001 2.6370001 -0.972
0.0070000002 2.7260001 -1.008
-0.001 2.7349999 -1.012
-0.0099999998 2.737 -1.013
-0.013 2.635 -0.97100002
-0.021 2.6370001 -0.972
-0.028999999 2.6329999 -0.97000003
-0.037999999 2.635 -0.97100002
-0.046 2.6370001 -0.972
-0.054000001 2.6359999 -0.972
-0.061999999 2.6289999 -0.96799999
-0.071000002 2.6340001 -0.97100002
-0.075000003 2.6300001 -0.96899998
-0.082999997 2.628 -0.96799999
-0.090999998 2.6300001 -0.96899998
-0.1 2.6300001 -0.96899998
-0.112 2.7119999 -1.0039999
-0.121 2.727 -1.01
-0.131 2.743 -1.017
-0.138 2.7869999 -1.035
-0.146 2.779 -1.0319999
-0.155 2.786 -1.035
-0.164 2.78 -1.033
-0.17399999 2.8069999 -1.044
-0.183 2.803 -1.043
-0.192 2.8039999 -1.043
-0.19599999 2.7980001 -1.041
-0.204 2.7920001 -1.039
-0.213 2.7880001 -1.0369999
-0.222 2.796 -1.041
-0.23 2.783 -1.036
-0.23899999 2.786 -1.0369999
-0.248 2.7850001 -1.0369999
-0.25 2.7609999 -1.027
-0.26100001 2.7839999 -1.0369999
-0.27500001 2.836 -1.059
0.35699999 3.5810001 -1.4
0.34200001 3.5450001 -1.3839999
0.329 3.526 -1.376
0.315 3.4920001 -1.3609999
0.303 3.4909999 -1.36
0.29100001 3.4719999 -1.351
0.27700001 3.4400001 -1.337
0.27500001 3.4790001 -1.354
0.259 3.4170001 -1.327
0.25099999 3.4579999 -1.344
0.23 3.325 -1.288
0.227 3.425 -1.33
0.20100001 3.2160001 -1.2410001
0.20100001 3.3640001 -1.303
0.134 2.8410001 -1.082
0.126 2.8559999 -1.0880001
0.117 2.842 -1.082
0.107 2.826 -1.075
0.102 2.826 -1.075
0.093000002 2.8210001 -1.073
0.083999999 2.819 -1.072
0.075000003 2.7939999 -1.061
0.064999998 2.776 -1.053
0.056000002 2.7739999 -1.052
0.048 2.7739999 -1.052
0.039000001 2.776 -1.053
0.035 2.78 -1.0549999
0.026000001 2.7820001 -1.0549999
0.017000001 2.789 -1.059
0.0089999996 2.7820001 -1.0549999
-0.0 2.7869999 -1.058
-0.0089999996 2.7820001 -1.0549999
-0.017999999 2.7820001 -1.0549999
-0.022 2.7820001 -1.0549999
-0.030999999 2.7839999 -1.056
-0.039000001 2.7709999 -1.051
-0.048 2.776 -1.053
-0.057 2.776 -1.053
-0.066 2.776 -1.053
-0.074000001 2.7750001 -1.053
-0.079000004 2.773 -1.052
-0.086999997 2.753 -1.044
-0.096000001 2.7579999 -1.046
-0.104 2.7579999 -1.046
-0.113 2.75 -1.043
-0.121 2.74 -1.039
-0.12899999 2.733 -1.036
-0.133 2.723 -1.0319999
-0.142 2.7279999 -1.034
-0.15099999 2.7279999 -1.034
-0.15899999 2.7179999 -1.031
-0.168 2.727 -1.034
-0.176 2.714 -1.029
0.324 3.53 -1.411
0.31200001 3.5179999 -1.406
0.303 3.5409999 -1.415
0.30000001 3.5829999 -1.433
0.28200001 3.487 -1.391
0.27399999 3.53 -1.41
0.26199999 3.5239999 -1.406
0.25 3.506 -1.399
0.23899999 3.5109999 -1.4
0.23 3.5480001 -1.416
