# .PCD v0.7 - Point Cloud Data file format
VERSION 0.7
FIELDS x y z
SIZE 4 4 4
TYPE F F F
COUNT 1 1 1
WIDTH 75
HEIGHT 1
VIEWPOINT 0 0 0 1 0 0 0
POINTS 75
DATA ascii
-21.174 27.872999 0.317
-21.349001 27.757999 -0.91600001
-21.138 27.929001 -0.285
-21.049999 28.073999 0.317
-21.087999 28.045 -0.28600001
-21.243 27.799999 -0.91500002
-21.066 28.299 -0.92500001
-21.240999 28.308001 1.0140001
-21.197001 28.065001 1.0089999
-21.237 27.934999 1.008
-21.344999 27.895 1.008
-21.457001 27.860001 1.0089999
-21.113001 28.174 -0.713
-21.141001 28.027 -0.71100003
-21.202 27.926001 -0.70999998
-21.287001 27.856001 -0.70999998
-21.386 27.802999 -0.70999998
-21.499001 27.860001 -0.713
-21.742001 27.992001 -0.72000003
-21.149 28.097 1.175
-21.122 28.785 -1.3839999
-21.059999 28.106001 -0.92000002
-21.115999 28.156 0.56300002
-21.094 28.035 0.56199998
-21.171 27.954 0.56199998
-21.268999 27.9 0.56199998
-21.393 27.879999 0.56199998
-21.521999 27.867001 0.56300002
-21.099001 28.106001 0.74199998
-21.091999 27.964001 -0.917
-21.152 28.226999 0.152
-21.166 28.061001 0.152
-21.235001 27.969 0.152
-21.316 27.893999 0.152
-21.412001 27.837999 0.152
-21.521 27.888 0.152
-21.719 27.962999 0.152
-21.26 27.827 -0.07
-21.482 27.844 -0.071000002
-21.665001 27.917999 1.404
-21.108 27.99 -0.07
-21.087 28.146 -0.071000002
-21.134001 28.025 -0.53100002
-21.179001 27.902 -0.07
-21.219999 28.729 -1.385
-21.371 27.790001 -0.07
-21.193001 27.92 -0.52999997
-21.694 27.937 -0.072999999
-21.308001 27.799 -0.52899998
-21.475 27.834999 -0.53200001
-21.673 27.910999 -0.53600001
-21.516001 27.867001 0.31799999
-21.212 27.855 -0.52899998
-21.322001 27.868 1.173
-21.115 28.155001 -1.153
-21.458 27.864 1.175
-21.122 28.181999 -0.28799999
-21.222 27.846001 0.317
-21.084999 27.938 0.317
-21.139 28.003 -1.149
-21.153999 27.931 -1.147
-21.344999 27.825001 0.317
-21.315001 27.780001 -1.146
-21.295 27.771999 -0.285
-21.679001 27.889 -1.158
-21.612 27.820999 -0.28799999
-21.535 27.819 -0.92199999
-21.195 27.820999 -0.285
-21.153999 27.865 -0.91500002
-21.129999 27.964001 0.741
-21.235001 27.92 0.741
-21.315001 27.843 0.741
-21.448999 27.773001 -1.149
-21.120001 28.190001 -0.53299999
-21.426001 27.761999 -0.28600001
