# .PCD v0.7 - Point Cloud Data file format
VERSION 0.7
FIELDS x y z
SIZE 4 4 4
TYPE F F F
COUNT 1 1 1
WIDTH 327
HEIGHT 1
VIEWPOINT 0 0 0 1 0 0 0
POINTS 327
DATA ascii
-33.922001 41.061001 -1.184
-32.433998 40.952999 0.37099999
-37.655998 41.964001 0.119
-33.884998 41.068001 -0.214
-32.824001 40.814999 -0.89300001
-40.575001 42.448002 -0.61799997
-40.847 42.464001 -0.62
-41.161999 42.523998 -0.62400001
-41.368 42.602001 -0.62699997
-32.715 40.910999 0.37200001
-32.646 40.799999 -0.52700001
-33.307999 40.889 -0.90100002
-34.727001 41.159 -0.92400002
-33.557999 40.932999 -0.90499997
-34.636002 41.181999 -0.21799999
-32.465 40.891998 -0.88999999
-35.330002 41.290001 -1.212
-34.821999 41.271 -0.22
-40.019001 42.441002 2.1819999
-34.881001 41.553001 0.122
-32.235001 41.448002 0.73799998
-32.313 41.279999 0.73699999
-32.444 41.047001 0.736
-32.563999 40.933998 0.736
-32.775002 40.935001 0.73699999
-33.021 40.976002 0.73900002
-33.261002 41.011002 0.741
-33.507999 41.049999 0.74299997
-33.733002 41.062 0.74400002
-34.501999 41.596001 0.75300002
-35.301998 42.02 0.76200002
-35.248001 41.688999 0.759
-36.428001 41.605 0.76599997
-34.973999 41.188999 -0.92799997
-37.174 41.921001 0.773
-37.433998 41.949001 0.77499998
-34.377998 41.137001 -0.21699999
-37.924999 42.097 0.77999997
-38.193001 42.126999 0.78200001
-36.110001 41.459999 -0.228
-39.941002 42.957001 0.80000001
-39.883999 42.762001 0.79799998
-39.978001 42.591999 0.79699999
-40.143002 42.5 0.79799998
-40.439999 42.546001 0.80000001
-36.377998 41.501999 -0.229
-41.012001 42.608002 0.80500001
-32.275002 41.314999 -0.207
-32.356998 41.153 -0.207
-32.465 41.025002 -0.207
-32.558998 40.879002 -0.206
-32.470001 40.973 1.645
-32.974998 40.870998 -0.208
-33.151001 40.958 -0.20999999
-33.092999 40.959999 1.656
-33.338001 40.999001 1.661
-33.578999 41.032001 1.666
-34.132999 41.104 -0.215
-34.372002 41.466999 1.689
-34.558998 41.560001 1.694
-34.818001 41.605 1.699
-35.075001 41.645 1.705
-35.292999 41.639 1.7079999
-35.407001 41.507999 1.7079999
-35.886002 41.464001 -0.226
-35.777 41.411999 1.712
-35.981998 41.516998 1.7180001
-36.254002 41.567001 1.724
-36.528 41.616001 1.73
-36.889999 41.764 1.74
-37.587002 41.943001 -0.23800001
-37.540001 41.965 1.756
-37.800999 41.991001 1.761
-38.088001 42.043999 1.767
-38.292999 42.137001 1.773
-37.862 41.984001 -0.23999999
-39.213001 42.265999 -0.249
-39.500999 42.308998 -0.25
-39.787998 42.349998 -0.252
-40.057999 42.369999 -0.25400001
-40.365002 42.425999 -0.25600001
-38.157001 42.046001 -0.242
-36.651001 41.626999 0.121
-41.182999 42.612 -0.26100001
-41.462002 42.631001 -0.26300001
-41.771999 42.681 -0.26499999
-41.727001 42.709999 1.849
-38.416 42.063999 -0.243
-41.306 42.624001 1.5599999
-38.702999 42.112999 -0.245
-40.375 42.539001 0.39199999
-38.936001 42.233002 -0.24699999
-39.969002 42.999001 1.101
-39.942001 42.700001 1.097
-41.839001 42.688 0.114
-37.077999 41.847 0.12
-40.050999 42.548 1.097
-41.554001 42.765999 0.81
-39.886002 42.798 1.816
-39.955002 42.602001 1.814
-40.651001 42.561001 0.39199999
-35.073002 41.305 -0.221
-40.094002 42.481998 1.814
-32.276001 41.264999 -1.161
-32.356998 41.103001 -1.159
-32.466 40.976002 -1.159
-32.549999 40.817001 -1.1569999
-32.745998 40.799 -1.16
-32.914001 40.876999 -1.164
-33.159 40.917 -1.169
-33.396 40.945999 -1.173
-33.666 41.013 -1.179
-32.505001 41.062 1.98
-34.124001 41.042 -1.187
-34.374001 41.080002 -1.192
-34.608002 41.095001 -1.196
-34.797001 41.188999 -1.201
-35.071999 41.25 -1.207
-32.533001 40.966 1.978
-40.824001 42.582001 1.83
-32.674 40.879002 1.979
-41.122002 42.623001 1.836
-35.326 41.339001 -0.223
-33.706001 41.062 0.124
-41.428001 42.672001 1.8430001
-32.338001 41.346001 0.125
-32.436001 41.202999 0.125
-32.530998 41.056999 0.125
-32.636002 40.924999 0.125
-32.731998 40.914001 0.125
-32.966999 40.944 0.125
-33.212002 40.983002 0.125
-33.473999 41.042 0.124
-32.91 40.91 1.985
-33.153 40.948002 1.9910001
-33.389 40.974998 1.9960001
-33.646 41.026001 2.003
-33.817001 41.103001 2.0090001
-34.612999 41.498001 0.123
-34.888 41.863998 2.052
-35.165001 41.929001 2.0599999
-35.200001 41.702999 2.0539999
-35.296001 41.551998 2.053
-35.436001 41.451 2.053
-35.525002 41.424 2.0539999
-35.782001 41.459 2.0610001
-36.042999 41.497002 2.0680001
-36.313 41.542999 2.075
-36.598 41.605 2.0829999
-33.804001 40.971001 -0.90899998
-35.117001 41.568001 0.122
-37.601002 41.941002 2.1140001
-39.277 42.543999 0.117
-38.081001 42.076 2.128
-39.828999 42.602001 0.116
-40.049 42.568001 0.116
-40.206001 42.466999 0.116
-39.768002 42.575001 2.1789999
-40.661999 42.543999 0.115
-40.977001 42.605 0.115
-41.244999 42.616001 0.115
-41.541 42.652 0.114
-40.875999 42.537998 2.204
-36.651001 41.549999 -0.23100001
-40.655998 42.464001 -0.25799999
-33.980999 41.053001 -0.912
-36.375999 41.577999 0.121
-32.148998 41.389999 0.37200001
-32.5 40.987999 1.003
-32.603001 40.853001 1.003
-32.832001 40.876999 1.005
-33.07 40.909 1.008
-33.313999 40.946999 1.011
-33.494999 41.037998 1.0140001
-33.752998 41.09 1.017
-34.884998 42.199001 1.041
-34.582001 41.563999 1.03
-35.159 41.988998 1.041
-35.388 41.994999 1.043
-35.334999 41.665001 1.039
-38.203999 42.041 0.118
-37.708 41.988998 0.77700001
-37.393002 41.936001 0.119
-36.48 41.539001 1.049
-36.784 41.619999 1.053
-37.16 41.914001 1.0599999
-37.424999 41.946999 1.063
-37.706001 41.995998 1.066
-37.992001 42.048 1.0700001
-38.256001 42.073002 1.073
-39.687 43.374001 1.102
-39.224998 42.598999 1.089
-40.887001 42.571999 -0.259
-34.231998 41.094002 -0.91600001
-37.933998 42.007999 0.119
-32.241001 41.240002 0.37200001
-40.194 42.431999 1.097
-40.464001 42.449001 1.1
-40.763 42.494999 1.103
-40.994999 42.602001 1.107
-36.944 41.733002 2.0940001
-41.598999 42.691002 1.114
-41.862 42.691002 1.117
-34.806 41.194 -0.55000001
-38.452 42.18 0.118
-38.986 42.497002 0.117
-37.797001 42.026001 2.1199999
-34.477001 41.124001 -0.92000002
-39.537998 42.557999 0.116
-41.293999 42.644001 1.1109999
-34.123001 41.304001 0.123
-39.986 42.716 1.541
-40.421001 42.425999 0.116
-32.248001 41.282001 -0.89300001
-32.342999 41.136002 -0.89200002
-32.433998 40.986 -0.89099997
-32.34 41.098999 0.37200001
-32.622002 40.826 -0.89099997
-32.473 40.870998 0.37099999
-33.064999 40.852001 -0.89700001
-32.951 40.942001 0.37200001
-33.196999 40.983002 0.373
-33.444 41.023998 0.37400001
-33.665001 41.032001 0.37400001
-34.494999 41.508999 0.377
-35.013 41.999001 0.37900001
-35.174 41.924 0.37900001
-35.195999 41.682999 0.37900001
-35.229 41.226002 -0.93199998
-35.499001 41.278999 -0.93699998
-34.43 41.410999 0.123
-36.363998 41.587002 0.38100001
-36.673 41.674999 0.382
-37.125 41.924 0.38299999
-37.375 41.939999 0.384
-37.672001 42.007 0.38499999
-37.875 42.099998 0.38499999
-38.131001 42.118 0.38600001
-39.041 42.583 0.389
-39.792999 42.860001 0.391
-39.856998 42.659 0.391
-39.966 42.507 0.391
-40.060001 42.473999 0.391
-37.022999 41.84 -0.235
-32.743999 40.847 -0.207
-40.973999 42.631001 0.39300001
-41.237999 42.637001 0.39399999
-41.548 42.688 0.39500001
-37.257 41.914001 1.75
-36.716 41.668999 0.76800001
-37.978001 42.004002 1.498
-32.192001 41.337002 -1.473
-35.608002 41.404999 -0.22499999
-39.834999 42.512001 2.1789999
-32.425999 41.051998 -0.528
-40.223999 42.486 1.816
-35.546001 41.407001 1.7079999
-32.515999 40.901001 -0.52700001
-32.534 41.007999 1.401
-32.629002 40.863998 1.399
-32.837002 40.861 1.402
-33.011002 40.944 1.406
-33.254002 40.981998 1.41
-33.498001 41.018002 1.414
-33.724998 41.033001 1.418
-34.924 42.219002 1.456
-32.487999 40.784 -1.465
-34.993 41.765999 1.449
-35.438999 42.028 1.46
-35.313 41.744999 1.454
-39.147999 42.639 0.792
-32.714001 40.803001 -1.47
-36.492001 41.526001 1.467
-36.688 41.617001 1.472
-37.169998 41.897999 1.484
-37.439999 41.936001 1.489
-37.706001 41.966 1.493
-33.373001 40.911999 -0.53500003
-38.249001 42.035999 1.503
-38.514 42.062 1.507
-39.265999 42.748001 1.53
-40.081001 43.087002 1.549
-33.606998 40.935001 -0.537
-40.063999 42.529999 1.539
-40.219002 42.426998 1.54
-40.5 42.455002 1.545
-40.719002 42.550999 1.55
-41.012001 42.588001 1.5549999
-33.789001 41.026001 -0.53899997
-41.605999 42.664001 1.566
-41.881001 42.676998 1.5700001
-34.056 41.085999 -0.54299998
-37.332001 41.904999 2.1070001
-33.835999 41.002998 -1.497
-33.398998 41.000999 -0.211
-40.716 42.568001 0.80199999
-34.546001 41.147999 -0.54799998
-34.474998 41.247002 -1.516
-41.674999 42.648998 -0.63
-34.623001 41.813 2.0450001
-37.323002 41.912998 -0.237
-41.317001 42.655998 0.80699998
-34.841999 41.421001 -1.528
-33.943001 41.212002 1.676
-34.889 41.212002 -1.524
-35.111 41.212002 -1.529
-33.644001 41.037998 -0.212
-34.597 41.557999 1.4400001
-32.299999 41.291 -0.52899998
-32.34 41.208 -0.52899998
-32.202999 41.216999 -1.47
-32.308998 41.085999 -1.469
-32.391998 40.925999 -1.466
-32.884998 40.835999 -0.52899998
-33.126999 40.872002 -0.53200001
-32.938 40.82 -1.474
-33.198002 40.879002 -1.4809999
-33.360001 40.945999 -1.4859999
-33.591 40.966999 -1.4910001
-34.287998 41.103001 -0.54500002
-34.080002 41.035 -1.503
-32.620998 40.898998 1.646
-35.054001 41.223999 -0.55299997
-35.324001 41.278 -0.55599999
-35.497002 41.348 -0.55800003
-36.002998 41.408001 -0.56400001
-32.855999 40.929001 1.651
