# .PCD v0.7 - Point Cloud Data file format
VERSION 0.7
FIELDS x y z
SIZE 4 4 4
TYPE F F F
COUNT 1 1 1
WIDTH 94
HEIGHT 1
VIEWPOINT 0 0 0 1 0 0 0
POINTS 94
DATA ascii
-50.335999 48.827 -0.77700001
-54.902 47.688 -0.81400001
-55.085999 47.544998 -0.815
-55.27 47.402 -0.815
-49.988998 50.479 0.92500001
-50.294998 50.153999 0.92500001
-54.169998 47.772999 0.93699998
-54.234001 47.527 0.93599999
-54.432999 47.400002 0.93599999
-54.477001 47.138 0.935
-49.983002 50.848 2.168
-49.950001 50.654999 2.1630001
-50.023998 50.411999 2.1600001
-50.063999 50.136002 2.155
-50.124001 49.882 2.152
-50.18 49.625 2.148
-50.238998 49.372002 2.1440001
-50.299 49.120998 2.1400001
-50.397999 48.516998 -0.34599999
-50.333 48.693001 2.1329999
-50.387001 48.438999 2.1289999
-50.442001 48.188 2.125
-50.512001 47.952 2.122
-50.786999 47.910999 2.1270001
-51.049999 47.856998 2.131
-51.896999 48.194 2.155
-52.27 48.236 2.1630001
-52.660999 48.292 2.1719999
-53.085999 48.375 2.1819999
-53.470001 48.418999 2.191
-53.841 48.446999 2.1989999
-54.212002 47.779999 -0.36399999
-54.493999 47.876999 -0.366
-54.147999 47.657001 2.191
-54.943001 47.662998 -0.368
-55.132 47.523998 -0.368
-55.307999 47.374001 -0.368
-49.986 50.879002 2.6210001
-50.042999 50.618 2.6159999
-50.098 50.355999 2.6110001
-50.157001 50.099998 2.6059999
-50.216 49.845001 2.602
-50.271 49.587002 2.5969999
-50.325001 49.328999 2.592
-50.303001 49.153 2.5869999
-50.362 48.902 2.5829999
-50.411999 48.644001 2.5780001
-50.465 48.389999 2.573
-50.52 48.139 2.569
-50.581001 47.895 2.5650001
-50.883999 47.879002 2.572
-51.210999 48.035999 2.5829999
-51.577 48.075001 2.5929999
-54.355999 47.671001 0.093999997
-52.758999 48.256001 2.6270001
-53.18 48.334 2.6389999
-53.550999 48.365002 2.6489999
-50.375999 48.344002 -0.345
-50.451 48.112 -0.34400001
-50.333 50.063 1.288
-50.306999 48.641998 1.272
-50.395 48.421001 1.271
-50.452999 48.021999 1.267
-50.664001 47.918999 1.2690001
-51.054001 47.986 1.274
-51.389 47.998001 1.277
-54.210999 47.686001 1.306
-54.207001 47.532001 1.304
-54.251999 47.271 1.302
-54.310001 47.021999 1.301
-54.389 46.792 1.299
-50.258999 48.928001 2.1359999
-54.750999 47.799 -0.36700001
-50.233002 49.865002 0.43000001
-50.615002 47.929001 0.42699999
-50.973 47.966 0.42699999
-54.25 47.625999 0.43399999
-54.462002 47.509998 0.435
-54.587002 47.318001 0.435
-50.032001 50.34 1.825
-50.431999 48.712002 1.8049999
-50.403 48.530998 1.802
-50.463001 48.284 1.799
-50.515999 48.032001 1.796
-50.613998 47.824001 1.794
-51.458 48.012001 1.811
-52.776001 48.471001 1.84
-53.345001 48.379002 1.849
-53.740002 48.431 1.8559999
-54.194 47.771 1.854
-55.192001 46.831001 1.857
-54.546001 47.535999 0.093999997
-54.734001 47.397999 0.093999997
-54.907001 47.247002 0.093999997
