# .PCD v0.7 - Point Cloud Data file format
VERSION 0.7
FIELDS x y z
SIZE 4 4 4
TYPE F F F
COUNT 1 1 1
WIDTH 113
HEIGHT 1
VIEWPOINT 0 0 0 1 0 0 0
POINTS 113
DATA ascii
-48.236 49.049 -0.759
-47.951 48.453999 -0.75
-48.009998 48.209999 -0.74800003
-48.009998 47.907001 -0.745
-47.959999 47.557999 -0.741
-48.077 47.525002 -0.74199998
-48.033001 47.183998 -0.73799998
-48.223999 47.075001 -0.73900002
-48.675999 46.922001 -0.74199998
-48.731998 46.681999 -0.74000001
-48.777 46.431999 -0.73799998
-49.151001 44.007999 -1.178
-48.830002 44.198002 -0.71799999
-48.928001 44.007999 -0.71700001
-49.403 44.154999 -0.72299999
-49.736 44.172001 -0.727
-49.550999 43.73 -0.72100002
-49.604 43.500999 -0.71899998
-49.793999 43.391998 -0.72000003
-48.581001 48.141998 0.898
-47.345001 46.479 0.87800002
-47.287998 46.132 0.875
-47.112999 45.387001 0.86799997
-47.249001 45.233002 0.86799997
-47.604 45.002998 0.86900002
-47.861 45.103001 0.87199998
-49.532001 44.241001 0.87800002
-49.807999 44.207001 0.88
-47.363998 47.794998 -0.32499999
-47.744999 47.877998 -0.32699999
-47.902 47.884998 -0.32800001
-47.908001 47.591 -0.32699999
-48.050999 47.435001 -0.32600001
-48.126999 47.212002 -0.32600001
-47.216 46.027 -0.31400001
-47.571999 46.083 -0.31600001
-48.626999 46.080002 -0.322
-47.493 44.723 -0.308
-47.585999 44.528 -0.308
-47.727001 44.380001 -0.308
-48.59 44.196999 -0.31200001
-48.48 43.819 -0.30899999
-48.448002 43.514 -0.308
-49.448002 44.132999 -0.317
-49.021999 43.477001 -0.31099999
-49.627998 44.233002 2.0350001
-49.852001 44.152 2.0380001
-48.438999 43.988998 -1.502
-48.608002 43.865002 -1.503
-49.047001 43.980999 -1.513
-49.316002 43.944 -1.518
-49.543999 43.868 -1.521
-49.620998 43.66 -1.5190001
-49.654999 43.550999 -1.518
-47.362 47.908001 0.419
-49.539001 43.797001 -1.181
-46.908001 47.556999 0.103
-47.049999 47.402 0.103
-47.66 47.564999 0.102
-47.370998 46.104 0.104
-47.476002 45.917 0.104
-47.373001 45.673 0.105
-47.52 45.528 0.105
-47.463001 45.188999 0.105
-47.428001 44.872002 0.105
-48.097 45.220001 0.104
-47.900002 44.051998 0.106
-48.250999 43.819 0.105
-48.173 43.473 0.106
-48.259998 43.277 0.106
-48.898998 43.573002 0.105
-49.049999 43.57 0.105
-49.231998 43.455002 0.105
-49.643002 44.415001 2.4619999
-49.681 44.168999 2.457
-49.835999 44.027 2.4579999
-50.108002 43.987999 2.464
-46.978001 47.969002 0.41800001
-46.757 47.388 1.22
-46.969002 47.305 1.222
-47.727001 47.769001 1.235
-48.198002 47.487999 1.237
-47.827 45.664001 1.214
-49.476002 44.353001 1.219
-49.589001 44.173 1.2180001
-49.813999 44.094002 1.22
-49.551998 44.445 2.0380001
-48.702 46.736 -1.21
-48.639 46.091999 -1.2
-48.785 45.223 -1.1900001
-48.404999 44.588001 -1.175
-48.43 44.051998 -1.168
-48.500999 43.839001 -1.166
-48.710999 43.889999 -1.17
-47.067001 47.909 0.419
-49.553001 44.088001 -1.186
-47.515999 47.763 0.419
-48.105999 48.053001 0.421
-47.390999 46.747002 0.417
-46.761002 45.835999 0.41299999
-46.915001 45.698002 0.41299999
-46.998001 45.636002 0.41299999
-47.083 45.431999 0.41299999
-47.258999 45.316002 0.41299999
-47.326 45.096001 0.41299999
-47.749001 44.647999 0.41299999
-49.027 44.000999 0.414
-49.259998 44.070999 0.41499999
-49.046001 43.602001 0.414
-49.051998 43.333 0.41299999
-49.632 44.450001 1.726
-49.688999 44.220001 1.723
-49.841 44.076 1.724
