# .PCD v0.7 - Point Cloud Data file format
VERSION 0.7
FIELDS x y z
SIZE 4 4 4
TYPE F F F
COUNT 1 1 1
WIDTH 96
HEIGHT 1
VIEWPOINT 0 0 0 1 0 0 0
POINTS 96
DATA ascii
-31.966999 19.739 1.064
-32.025002 19.636 1.064
-32.131001 19.563 1.0650001
-32.316002 19.535999 1.068
-31.822001 19.891001 -0.99699998
-32.217999 19.511 -1.001
-32.262001 19.399 -1.001
-32.234001 19.243999 -0.99699998
-32.736 19.197001 -1.01
-32.158001 19.673 -0.32300001
-32.153 19.531 -0.322
-32.185001 19.413 -0.32100001
-32.298 19.341999 -0.322
-32.438999 19.289 -0.32300001
-29.941999 15.89 -0.88099998
-32.452 20.382 -1.501
-31.844999 19.861 -1.466
-32.004002 19.820999 -1.471
-32.188999 19.518999 -1.471
-32.264 19.426001 -1.471
-32.160999 19.295 -1.465
-30.789 18.339001 -1.39
-30.955 18.306 -1.396
-30.686001 18.017 -1.3789999
-30.931 18.031 -1.3890001
-30.912001 17.76 -1.382
-30.737 17.594999 -1.372
-30.351 17.122 -1.346
-30.445 17.049 -1.348
-30.422001 16.91 -1.344
-30.316999 16.603001 -1.334
-31.93 19.931 1.243
-31.653 19.694 -1.233
-31.971001 19.891001 0.588
-31.99 19.763 0.58700001
-32.050999 19.663 0.58700001
-32.081001 19.542 0.58700001
-32.192001 19.540001 0.588
-32.147999 19.747999 -0.092
-32.105999 19.584 -0.090999998
-32.161999 19.48 -0.090999998
-32.126999 19.320999 -0.090000004
-32.425999 19.362 -0.092
-31.915001 19.782 1.24
-31.969999 19.677999 1.24
-32.055 19.591999 1.2410001
-32.193001 19.538 1.243
-32.261002 19.669001 -0.78100002
-32.254002 19.525999 -0.77899998
-32.299999 19.415001 -0.778
-32.397999 19.336 -0.77899998
-32.636002 19.339001 -0.78500003
-32.832001 19.385 -0.79000002
-32.897999 19.285 -0.79000002
-31.950001 19.915001 1.482
-32.162998 19.749001 0.148
-32.153999 19.604 0.148
-32.200001 19.493 0.148
-32.292999 19.412001 0.148
-32.013 19.676001 1.48
-32.268002 19.518 -1.25
-32.43 20.459999 -1.274
-32.195999 20.172001 -1.261
-31.934999 19.766001 1.479
-31.273001 19.322001 -1.2130001
-32.112999 19.599001 1.4809999
-32.261002 19.445 -1.248
-32.339001 19.353001 -1.249
-30.854 18.334999 -1.1799999
-33.080002 19.514999 -1.277
-32.919998 19.282 -1.267
-32.844002 19.099001 -1.261
-30.382 17.1 -1.14
-31.962999 19.801001 0.77999997
-31.945 19.719999 0.77899998
-31.981001 19.604 0.778
-32.09 19.532 0.77899998
-32.263 19.499001 0.78100002
-32.215 19.650999 -0.58600003
-32.208 19.577999 -0.58499998
-32.217999 19.445 -0.58399999
-32.321999 19.370001 -0.58499998
-32.466999 19.318001 -0.58700001
-30.992001 19.129999 -1.625
-30.837 18.306999 -1.597
-30.909 17.698999 -1.585
-30.5 17.275 -1.556
-30.379999 17.082001 -1.546
-30.483 17.013 -1.549
-30.323 16.799 -1.5369999
-30.421 16.729 -1.54
-31.947001 19.747 0.32499999
-31.978001 19.627001 0.32499999
-32.028 19.52 0.32499999
-32.139999 19.450001 0.32499999
-31.964001 19.875999 1.066
