# .PCD v0.7 - Point Cloud Data file format
VERSION 0.7
FIELDS x y z
SIZE 4 4 4
TYPE F F F
COUNT 1 1 1
WIDTH 430
HEIGHT 1
VIEWPOINT 0 0 0 1 0 0 0
POINTS 430
DATA ascii
-36.106998 21.297001 0.63099998
-36.087002 21.132999 0.63
-36.077 20.976 0.62900001
-35.987 20.848 0.62699997
-36.000999 20.705 0.62699997
-36.007999 20.559 0.62599999
-35.98 20.393 0.625
-35.971001 20.239 0.62400001
-35.952 20.08 0.62300003
-35.903 19.905001 0.62199998
-35.876999 19.816999 0.62099999
-35.854 19.658001 0.62
-35.837002 19.502001 0.61900002
-35.817001 19.346001 0.61900002
-35.805 19.195 0.61799997
-35.766998 19.030001 0.61699998
-35.765999 18.885 0.616
-35.730999 18.724001 0.61500001
-35.667 18.618999 0.61400002
-35.755001 18.521999 0.61400002
-35.861 18.434 0.61500001
-35.764999 17.961 0.61199999
-35.348999 17.268999 0.60500002
-35.368 17.139999 0.60399997
-35.321999 16.981001 0.60299999
-35.27 16.82 0.602
-35.264999 16.681999 0.60100001
-35.175999 16.572001 0.60000002
-35.16 16.431 0.59899998
-35.117001 16.275999 0.59799999
-35.422001 14.692 0.59500003
-35.403 14.554 0.59399998
-35.355999 14.405 0.59299999
-35.320999 14.262 0.59200001
-36.095001 21.280001 0.84500003
-36.078999 21.118 0.84399998
-36.056999 20.952999 0.84200001
-36.02 20.781 0.83999997
-36.034 20.636999 0.83899999
-36.015999 20.478001 0.838
-35.990002 20.313 0.83600003
-35.987 20.163 0.83499998
-35.924999 20.054001 0.83399999
-35.900002 19.892 0.83200002
-35.886002 19.737 0.83099997
-35.879002 19.587 0.82999998
-35.845001 19.422001 0.82800001
-35.832001 19.27 0.82700002
-35.813 19.115 0.82499999
-35.755001 19.011 0.824
-35.735001 18.857 0.82200003
-35.705002 18.698 0.82099998
-35.691002 18.548 0.81999999
-35.812 18.468 0.82099998
-35.734001 18.285999 0.81800002
-35.738998 17.936001 0.81599998
-35.626999 17.739 0.81300002
-35.424999 17.362 0.80800003
-35.428001 17.225 0.80699998
-36.132999 14.907 0.80199999
-36.304001 14.844 0.80400002
-36.479 14.849 0.80699998
-36.153999 21.313999 1.164
-36.129002 21.146999 1.1619999
-36.130001 20.995001 1.16
-36.058998 20.802 1.156
-36.088001 20.667999 1.155
-36.076 20.511 1.153
-36.025002 20.407 1.151
-36.009998 20.25 1.149
-35.986 20.087999 1.147
-35.970001 19.931 1.145
-35.942001 19.768 1.143
-35.918999 19.608999 1.14
-35.914001 19.459999 1.1390001
-35.860001 19.358 1.136
-35.849998 19.208 1.135
-35.817001 19.045 1.132
-35.791 18.888 1.13
-35.778 18.737 1.128
-35.743999 18.577 1.126
-35.818001 18.473 1.126
-35.891998 18.368 1.127
-35.818001 18.259001 1.124
-35.743999 17.940001 1.119
-35.714001 17.785 1.117
-35.696999 17.636 1.115
-35.661999 17.48 1.113
-35.449001 17.238001 1.1059999
-35.388 17.139999 1.104
-36.478001 14.851 1.105
-36.669998 14.795 1.109
-35.937 20.427 -1.635
-35.854 19.788 -1.618
-35.793999 19.535 -1.61
-35.772999 19.378 -1.6059999
-35.217999 16.709999 -1.53
-35.099998 16.384001 -1.5190001
-34.944 15.581 -1.498
-35.341999 15.164 -1.507
-36.080002 21.360001 1.3609999
-36.091 21.214001 1.359
-35.93 20.143 1.34
-35.932999 19.997 1.339
-35.914001 19.839001 1.336
-35.884998 19.676001 1.3329999
-35.839001 19.577 1.331
-35.810001 19.416 1.3279999
-35.794998 19.261999 1.326
-35.769001 19.104 1.323
-35.743 18.945 1.3200001
-35.726002 18.792999 1.318
-35.700001 18.636 1.3150001
-35.679001 18.554001 1.314
-35.805 18.476999 1.316
-35.771999 18.318001 1.313
-35.771999 18.176001 1.311
-35.702999 18.0 1.307
-35.688 17.851999 1.3049999
-35.662998 17.698999 1.303
-35.598999 17.598 1.3
-36.0 20.780001 -1.398
-35.991001 20.549999 -1.3940001
-35.962002 20.384001 -1.39
-35.933998 19.923 -1.38
-35.907001 19.761 -1.376
-35.862 19.663 -1.373
-35.838001 19.503 -1.369
-35.811001 19.343 -1.365
-35.798 19.191 -1.362
-35.845001 19.254999 1.585
-35.84 19.107 1.5829999
-35.736 18.549999 1.571
-35.854 18.469 1.573
-35.827999 18.313 1.5700001
-35.813 18.164 1.567
-35.758999 17.995001 1.563
-35.729 17.84 1.5599999
-35.698002 17.754999 1.557
-35.668999 17.601 1.554
-35.481998 17.370001 1.545
-35.416 17.200001 1.54
-35.243999 16.673 -1.299
-35.178001 16.573999 -1.295
-35.150002 16.426001 -1.2920001
-35.096001 16.267 -1.2869999
-35.034 15.509 -1.273
-35.261002 14.367 -1.2640001
-35.993999 20.143 1.604
-35.792999 19.044001 -1.359
-35.346001 17.129999 -1.3099999
-35.301998 16.973 -1.306
-35.373001 17.042 1.5369999
-36.067001 21.23 -1.135
-35.910999 20.910999 -1.126
-35.953999 20.785 -1.125
-35.943001 20.628 -1.122
-35.929001 20.469999 -1.119
-35.919998 20.316 -1.1160001
-35.870998 20.139 -1.112
-35.881001 19.997 -1.11
-35.839001 19.9 -1.108
-35.819 19.742001 -1.105
-35.797001 19.583 -1.102
-35.776001 19.426001 -1.099
-35.763 19.273001 -1.096
-35.717999 19.104 -1.092
-35.650002 18.853001 -1.086
-35.646999 18.708 -1.084
-35.515999 18.073 -1.071
-35.444 17.827 -1.0650001
-35.394001 17.524 -1.0599999
-35.318001 17.211 -1.053
-35.287998 17.059 -1.05
-35.250999 16.903999 -1.0470001
-35.195999 16.809999 -1.044
-35.164001 16.659 -1.041
-35.125999 16.506001 -1.038
-35.103001 16.361 -1.035
-34.944 15.557 -1.02
-35.041 15.469 -1.022
-35.132999 15.378 -1.023
-35.147999 15.253 -1.022
-35.313 15.193 -1.026
-35.386002 14.505 -1.02
-35.351002 14.361 -1.017
-35.27 14.263 -1.013
-35.959 20.926001 -0.88
-36.026001 20.813999 -0.88
-36.037998 20.669001 -0.87900001
-36.0 20.497999 -0.87599999
-36.007999 20.353001 -0.87400001
-35.964001 20.253 -0.87199998
-35.931 20.087 -0.86900002
-35.924 19.934999 -0.86699998
-35.894001 19.771 -0.86400002
-35.859001 19.605 -0.861
-35.831001 19.444 -0.85799998
-35.820999 19.294001 -0.85600001
-35.771999 19.195 -0.85399997
-35.741001 19.034 -0.85100001
-35.723999 18.881001 -0.84899998
-35.698002 18.724001 -0.84600002
-35.674 18.569 -0.84399998
-35.652 18.415001 -0.84200001
-35.625999 18.26 -0.83899999
-35.612 18.112 -0.83700001
-35.515999 17.854 -0.83200002
-35.497002 17.704 -0.82999998
-35.473 17.554001 -0.82700002
-35.442001 17.4 -0.82499999
-35.414001 17.247999 -0.82300001
-35.390999 17.1 -0.81999999
-35.327 17.000999 -0.81800002
-35.312 16.857 -0.81599998
-35.264999 16.698999 -0.81300002
-35.223 16.544001 -0.81
-35.196999 16.396999 -0.80800003
-35.16 16.245001 -0.80500001
-35.082001 15.48 -0.79500002
-35.162998 15.384 -0.796
-35.268002 15.298 -0.79799998
-35.278 15.236 -0.79699999
-35.462002 14.529 -0.79500002
-35.395 14.437 -0.792
-36.110001 21.336 -0.67400002
-36.124001 21.191 -0.67299998
-36.049 20.995001 -0.67000002
-36.048 20.768 -0.667
-36.043999 20.615 -0.66600001
-36.029999 20.457001 -0.66399997
-36.006001 20.292999 -0.662
-35.993999 20.138 -0.66000003
-35.966 19.974001 -0.65799999
-35.939999 19.812 -0.65499997
-35.901001 19.716999 -0.65399998
-35.883999 19.561001 -0.65200001
-35.859001 19.402 -0.64999998
-35.816002 19.233 -0.64700001
-35.808998 19.084999 -0.64600003
-35.792999 18.931999 -0.64399999
-35.763 18.773001 -0.64200002
-35.695 18.665001 -0.63999999
-35.671001 18.51 -0.63800001
-35.648998 18.356001 -0.63599998
-35.622002 18.202 -0.634
-35.603001 18.051001 -0.63200003
-35.522999 17.870001 -0.62900001
-35.537998 17.738001 -0.62800002
-35.473 17.636 -0.62599999
-35.448002 17.483999 -0.62400001
-35.424999 17.334999 -0.62199998
-35.389999 17.18 -0.62
-35.362 17.030001 -0.61799997
-35.331001 16.878 -0.616
-35.285999 16.721001 -0.61400002
-35.233002 16.628 -0.61199999
-35.435001 16.587 -0.61500001
-34.917 15.614 -0.597
-34.986 15.514 -0.597
-35.09 15.428 -0.59899998
-35.174999 15.333 -0.59899998
-35.278999 15.248 -0.60100001
-35.373001 15.156 -0.602
-35.445 14.598 -0.59899998
-35.443001 14.466 -0.59799999
-35.360001 14.303 -0.59500003
-36.124001 21.17 -0.38100001
-36.088001 21.073 -0.38
-36.014999 20.879999 -0.37799999
-36.032001 20.739 -0.377
-36.029999 20.587 -0.37599999
-36.012001 20.427 -0.375
-35.993999 20.268 -0.373
-35.972 20.107 -0.37200001
-35.926998 20.007999 -0.37099999
-35.907001 19.849001 -0.37
-35.887001 19.691 -0.368
-35.855999 19.528 -0.36700001
-35.832001 19.368999 -0.36500001
-35.807999 19.211 -0.36399999
-35.786999 19.055 -0.36300001
-35.762001 18.898001 -0.361
-35.714001 18.801001 -0.36000001
-35.688 18.643999 -0.359
-35.667999 18.492001 -0.35800001
-35.646 18.337999 -0.35600001
-35.611 18.179001 -0.35499999
-35.534 17.999001 -0.35299999
-35.528999 17.857 -0.352
-35.504002 17.775 -0.35100001
-35.462002 17.615 -0.34900001
-35.449001 17.469999 -0.34799999
-35.404999 17.309999 -0.347
-35.376999 17.159 -0.34599999
-35.341999 17.004999 -0.34400001
-35.32 16.858 -0.34299999
-35.256001 16.76 -0.34200001
-35.212002 16.604 -0.34
-35.186001 16.457001 -0.33899999
-35.073002 16.268999 -0.336
-35.118 16.157 -0.336
-34.973999 15.495 -0.331
-35.053001 15.399 -0.331
-35.146 15.308 -0.33199999
-35.249001 15.221 -0.333
-35.326 15.123 -0.333
-35.438 14.582 -0.33199999
-35.418999 14.444 -0.331
-35.351002 14.287 -0.329
-36.070999 21.312 -0.124
-36.084999 21.167999 -0.124
-36.066002 21.004999 -0.123
-35.938 20.778999 -0.121
-36.035999 20.684999 -0.122
-36.018002 20.524 -0.121
-35.998001 20.364 -0.12
-35.956001 20.264999 -0.119
-35.937 20.106001 -0.119
-35.912998 19.944 -0.118
-35.896 19.788 -0.117
-35.872002 19.628 -0.116
-35.856998 19.473 -0.116
-35.845001 19.320999 -0.115
-35.782001 19.215 -0.114
-35.752998 19.054001 -0.113
-35.734001 18.900999 -0.113
-35.702999 18.740999 -0.112
-35.691002 18.591 -0.111
-35.664001 18.434999 -0.111
-35.639999 18.281 -0.11
-35.507 18.142 -0.108
-35.581001 18.039 -0.109
-35.507 17.862 -0.107
-35.490002 17.714001 -0.107
-35.452 17.556 -0.106
-35.428001 17.405001 -0.105
-35.389 17.247999 -0.104
-35.362 17.098 -0.104
-35.287998 16.993999 -0.103
-35.275002 16.851 -0.102
-35.234001 16.695 -0.101
-35.214001 16.549999 -0.101
-35.368999 16.488001 -0.102
-34.919998 15.549 -0.094999999
-35.009998 15.458 -0.096000001
-35.098999 15.366 -0.096000001
-35.196999 15.277 -0.097000003
-35.273998 15.245 -0.097000003
-35.435001 14.528 -0.096000001
-35.339001 14.424 -0.094999999
-35.312 14.283 -0.093999997
-36.159 21.347 0.141
-36.160999 21.195 0.142
-36.030998 20.816999 0.142
-36.132999 20.724001 0.142
-36.111 20.561001 0.142
-36.060001 20.457001 0.142
-36.043999 20.299 0.142
-36.027 20.141001 0.14300001
-36.011002 19.983999 0.14300001
-35.990002 19.823999 0.14300001
-35.962002 19.662001 0.14300001
-35.952 19.51 0.14300001
-35.897999 19.408001 0.14300001
-35.870998 19.247999 0.14300001
-35.851002 19.093 0.14399999
-35.826 18.934999 0.14399999
-35.800999 18.778 0.14399999
-35.780998 18.625 0.14399999
-35.780998 18.482 0.14399999
-35.894001 18.469 0.14399999
-35.896 18.327999 0.14399999
-35.888 18.181999 0.14399999
-35.818001 18.004999 0.14399999
-35.810001 17.860001 0.14399999
-35.766998 17.698999 0.145
-35.763 17.558001 0.145
-35.570999 17.393999 0.145
-35.428001 17.187 0.145
-35.390999 17.032 0.146
-35.358002 16.879 0.146
-35.327999 16.729 0.146
-35.285999 16.573999 0.146
-35.236 16.415001 0.146
-35.191002 16.327 0.146
-35.152 16.174999 0.147
-35.09 15.484 0.147
-35.160999 15.383 0.147
-35.227001 15.346 0.147
-35.326 15.258 0.147
-35.470001 14.598 0.147
-35.443001 14.457 0.147
-35.389999 14.306 0.147
-36.022999 21.264999 0.33899999
-36.021999 21.113001 0.338
-35.950001 20.919001 0.338
-35.965 20.777 0.338
-35.967999 20.628 0.338
-35.917 20.524 0.33700001
-35.893002 20.360001 0.33700001
-35.887001 20.208 0.33700001
-35.868 20.049 0.336
-35.845001 19.889 0.336
-35.821999 19.729 0.336
-35.806 19.573999 0.33500001
-35.771999 19.482 0.33500001
-35.734001 19.316 0.33500001
-35.698002 19.152 0.33500001
-35.679001 18.997 0.33399999
-35.66 18.844 0.33399999
-35.636002 18.688 0.33399999
-35.617001 18.535999 0.333
-35.727001 18.521999 0.33399999
-35.660999 18.346001 0.333
-35.667999 17.926001 0.333
-35.284 17.249001 0.331
-35.263 17.101999 0.33000001
-35.238998 16.954 0.33000001
-35.191002 16.794001 0.33000001
-35.167999 16.648001 0.329
-35.127998 16.493999 0.329
-35.012001 16.372 0.329
-34.917999 15.533 0.32699999
-34.974998 15.493 0.32699999
-35.071999 15.404 0.32800001
-35.410999 15.421 0.329
-35.331001 14.664 0.32699999
-35.341 14.539 0.32699999
-35.266998 14.379 0.32699999
