# .PCD v0.7 - Point Cloud Data file format
VERSION 0.7
FIELDS x y z
SIZE 4 4 4
TYPE F F F
COUNT 1 1 1
WIDTH 1699
HEIGHT 1
VIEWPOINT 0 0 0 1 0 0 0
POINTS 1699
DATA ascii
-18.599001 -5.1739998 0.054000001
-18.525 -5.2160001 0.054000001
-18.469999 -5.263 0.055
-18.396999 -5.2740002 0.055
-13.127 -3.8150001 0.097999997
-13.076 -3.845 0.098999999
-13.033 -3.8770001 0.098999999
-12.992 -3.9100001 0.098999999
-12.961 -3.9449999 0.098999999
-12.958 -3.9879999 0.098999999
-12.932 -4.0250001 0.098999999
-12.918 -4.0430002 0.098999999
-12.93 -4.0910001 0.098999999
-12.944 -4.1399999 0.098999999
-12.965 -4.1919999 0.098999999
-13.005 -4.25 0.097999997
-17.476 -5.7620001 0.061000001
-17.424 -5.8060002 0.061000001
-17.368999 -5.8179998 0.061999999
-17.302999 -5.8569999 0.061999999
-17.243 -5.8969998 0.061999999
-17.167999 -5.9320002 0.063000001
-17.111 -5.9720001 0.063000001
-17.038 -6.007 0.064000003
-16.989 -6.0500002 0.064000003
-16.917 -6.0539999 0.064000003
-16.849001 -6.0900002 0.064999998
-16.773001 -6.1220002 0.064999998
-16.715 -6.1599998 0.066
-16.646 -6.1950002 0.066
-16.584 -6.2309999 0.066
-16.516001 -6.2649999 0.067000002
-16.462999 -6.2740002 0.067000002
-16.385 -6.3039999 0.068000004
-16.333 -6.3429999 0.068000004
-16.257 -6.3720002 0.068000004
-16.198 -6.408 0.068999998
-16.120001 -6.4359999 0.068999998
-16.069 -6.474 0.068999998
-16.000999 -6.4759998 0.07
-15.947 -6.513 0.07
-15.878 -6.5430002 0.071000002
-15.815 -6.5749998 0.071000002
-15.747 -6.605 0.071000002
-15.68 -6.6350002 0.071999997
-15.613 -6.665 0.071999997
-15.573 -6.6760001 0.071999997
-15.506 -6.7059999 0.072999999
-15.454 -6.7410002 0.072999999
-15.383 -6.7680001 0.072999999
-15.33 -6.802 0.074000001
-15.254 -6.8260002 0.074000001
-15.196 -6.8569999 0.075000003
-15.151 -6.8660002 0.075000003
-15.087 -6.8940001 0.075000003
-15.02 -6.921 0.075999998
-20.825001 -3.8540001 0.69099998
-14.893 -6.9759998 0.075999998
-14.842 -7.0089998 0.077
-14.777 -7.0349998 0.077
-14.718 -7.0640001 0.077
-14.669 -7.0689998 0.078000002
-14.615 -7.0999999 0.078000002
-14.549 -7.1240001 0.078000002
-14.493 -7.1529999 0.079000004
-14.434 -7.1810002 0.079000004
-14.376 -7.2080002 0.079000004
-14.314 -7.2340002 0.079999998
-14.263 -7.2360001 0.079999998
-14.199 -7.2600002 0.079999998
-14.153 -7.2930002 0.079999998
-14.091 -7.3169999 0.081
-14.031 -7.342 0.081
-13.969 -7.3660002 0.081
-13.919 -7.395 0.082000002
-13.867 -7.3959999 0.082000002
-13.805 -7.4190001 0.082000002
-13.753 -7.447 0.082999997
-13.698 -7.473 0.082999997
-13.636 -7.4949999 0.082999997
-13.576 -7.5170002 0.083999999
-13.513 -7.5380001 0.083999999
-13.474 -7.5440001 0.083999999
-13.418 -7.5689998 0.085000001
-13.365 -7.5939999 0.085000001
-13.294 -7.6090002 0.085000001
-20.764999 -3.9100001 0.69
-13.189 -7.6589999 0.086000003
-13.127 -7.6789999 0.086000003
-13.125 -7.7049999 0.086000003
-12.848 -7.652 0.088
-12.894 -7.7340002 0.086999997
-12.863 -7.7709999 0.088
-12.814 -7.7969999 0.088
-12.761 -7.8189998 0.088
-12.714 -7.8179998 0.088
-12.651 -7.8340001 0.089000002
-9.8959999 -6.178 0.114
-12.532 -7.9250002 0.089000002
-12.522 -7.974 0.089000002
-12.502 -8.0170002 0.089000002
-12.505 -8.0459995 0.089000002
-12.491 -8.0930004 0.089000002
-12.484 -8.1440001 0.088
-12.472 -8.1920004 0.088
-12.456 -8.2379999 0.088
-12.444 -8.2860003 0.088
-12.431 -8.3339996 0.088
-12.434 -8.3640003 0.088
-12.426 -8.4160004 0.088
-12.405 -8.4580002 0.088
-12.395 -8.5080004 0.086999997
-12.346 -8.5319996 0.088
-12.311 -8.5649996 0.088
-12.334 -8.6379995 0.086999997
-12.382 -8.7010002 0.086999997
-12.342 -8.7309999 0.086999997
-12.283 -8.7480001 0.086999997
-11.979 -8.8470001 0.089000002
-11.927 -8.8669996 0.089000002
-11.867 -8.8800001 0.089000002
-11.818 -8.9020004 0.089000002
-11.768 -8.9219999 0.090000004
-11.719 -8.9429998 0.090000004
-11.684 -8.9460001 0.090000004
-11.629 -8.9619999 0.090000004
-11.579 -8.9809999 0.090000004
-11.533 -9.0039997 0.090999998
-11.473 -9.0159998 0.090999998
-10.641 -8.4720001 0.098999999
-10.601 -8.4680004 0.098999999
-10.549 -8.4809999 0.098999999
-10.51 -8.5039997 0.098999999
-10.452 -8.5120001 0.1
-10.412 -8.5340004 0.1
-10.358 -8.5450001 0.1
-10.313 -8.5620003 0.1
-10.272 -8.5550003 0.101
-10.24 -8.5830002 0.101
-10.183 -8.5900002 0.101
-10.134 -8.6040001 0.101
-10.09 -8.6210003 0.101
-10.045 -8.6370001 0.102
-10.006 -8.658 0.102
-9.96 -8.6739998 0.102
-9.9180002 -8.665 0.102
-9.8710003 -8.6789999 0.102
-9.8269997 -8.6949997 0.103
-9.7720003 -8.7010002 0.103
-9.7320004 -8.7209997 0.103
-9.691 -8.7390003 0.103
-9.6309996 -8.7399998 0.103
-9.6070004 -8.7460003 0.104
-9.5550003 -8.7530003 0.104
-9.5139999 -8.7709999 0.104
-9.4610004 -8.7779999 0.104
-9.4200001 -8.7950001 0.104
-9.3690004 -8.8030005 0.105
-9.3269997 -8.8179998 0.105
-9.2910004 -8.8120003 0.105
-9.2559996 -8.835 0.105
-9.2030001 -8.8389997 0.105
-9.1630001 -8.8570004 0.106
-9.1099997 -8.8599997 0.106
-9.0649996 -8.8719997 0.106
-9.0360003 -8.8719997 0.106
-8.9969997 -8.8900003 0.106
-8.948 -8.8970003 0.107
-8.9130001 -8.9180002 0.107
-8.8620005 -8.9230003 0.107
-8.823 -8.9390001 0.107
-8.7729998 -8.9460001 0.107
-8.7469997 -8.9469995 0.107
-8.6999998 -8.9549999 0.108
-8.6610003 -8.9709997 0.108
-8.6090002 -8.974 0.108
-8.5699997 -8.9890003 0.108
-8.5220003 -8.9960003 0.108
-8.4890003 -9.0170002 0.108
-8.4379997 -9.0200005 0.109
-8.4130001 -9.0220003 0.109
-8.3590002 -9.0200005 0.109
-8.3269997 -9.0419998 0.109
-8.2790003 -9.0480003 0.109
-8.2469997 -9.0690002 0.109
-8.1969995 -9.0710001 0.11
-8.1560001 -9.0839996 0.11
-8.1230001 -9.0760002 0.11
-8.085 -9.0909996 0.11
-8.0450001 -9.1029997 0.11
-8.0030003 -9.1129999 0.11
-7.9559999 -9.1169996 0.111
-7.914 -9.1269999 0.111
-7.869 -9.1330004 0.111
-7.8470001 -9.1370001 0.111
-7.8080001 -9.1490002 0.111
-7.7649999 -9.1569996 0.111
-7.7220001 -9.1639996 0.112
-7.6869998 -9.1809998 0.112
-7.6389999 -9.1820002 0.112
-7.599 -9.1940002 0.112
-7.5679998 -9.1859999 0.112
-7.5370002 -9.2060003 0.112
-7.4889998 -9.2069998 0.112
-7.4510002 -9.2189999 0.113
-7.4070001 -9.224 0.113
-7.369 -9.2360001 0.113
-7.3249998 -9.2410002 0.113
-7.303 -9.243 0.113
-7.2579999 -9.2449999 0.113
-7.2210002 -9.257 0.113
-7.1729999 -9.2559996 0.114
-7.1430001 -9.2770004 0.114
-7.0999999 -9.2819996 0.114
-7.0609999 -9.2910004 0.114
-7.0310001 -9.2819996 0.114
-6.993 -9.2919998 0.114
-6.9499998 -9.2950001 0.114
-6.9159999 -9.3109999 0.115
-6.8740001 -9.316 0.115
-6.8369999 -9.3260002 0.115
-6.7930002 -9.3290005 0.115
-6.7750001 -9.3339996 0.115
-6.7280002 -9.3310003 0.115
-6.6939998 -9.3459997 0.115
-6.6539998 -9.3520002 0.115
-6.619 -9.3649998 0.116
-6.573 -9.3629999 0.116
-6.54 -9.3780003 0.116
-6.5120001 -9.3690004 0.116
-6.4790001 -9.3850002 0.116
-6.4349999 -9.3830004 0.116
-6.4060001 -9.4049997 0.116
-6.3579998 -9.3970003 0.117
-6.3239999 -9.4110003 0.117
-6.2820001 -9.4119997 0.117
-6.2639999 -9.4169998 0.117
-6.2249999 -9.4230003 0.117
-6.1900001 -9.434 0.117
-6.151 -9.4390001 0.117
-6.1129999 -9.4460001 0.117
-12.115 -4.6290002 -1.638
-12.097 -4.6659999 -1.637
-12.075 -4.7010002 -1.636
-12.051 -4.7350001 -1.635
-12.032 -4.7719998 -1.6339999
-12.021 -4.789 -1.6339999
-12.01 -4.8280001 -1.6339999
-5.7680001 -9.4910002 0.118
-11.988 -4.9070001 -1.636
-11.993 -4.9530001 -1.6390001
-11.976 -4.9899998 -1.638
-11.942 -5.02 -1.636
-11.917 -5.0320001 -1.633
-11.892 -5.066 -1.632
-11.894 -5.1110001 -1.6339999
-11.871 -5.145 -1.633
-11.873 -5.1900001 -1.636
-11.846 -5.223 -1.6339999
-11.84 -5.2649999 -1.636
-11.825 -5.2800002 -1.635
-11.81 -5.3179998 -1.635
-11.789 -5.3530002 -1.635
-11.789 -5.3979998 -1.637
-11.745 -5.4219999 -1.633
-11.679 -5.4369998 -1.625
-11.737 -5.5089998 -1.637
-11.727 -5.526 -1.637
-11.722 -5.5689998 -1.6390001
-11.699 -5.6030002 -1.638
-11.676 -5.6370001 -1.637
-11.644 -5.6669998 -1.635
-11.624 -5.7030001 -1.635
-11.603 -5.7379999 -1.6339999
-11.603 -5.7600002 -1.636
-11.572 -5.79 -1.6339999
-11.556 -5.8280001 -1.6339999
-11.456 -5.823 -1.6210001
-11.48 -5.8800001 -1.628
-11.46 -5.915 -1.627
-11.436 -5.9489999 -1.627
-11.391 -5.948 -1.6210001
-11.359 -5.9770002 -1.619
-11.331 -6.0079999 -1.617
-11.316 -6.0450001 -1.618
-11.307 -6.086 -1.62
-11.276 -6.1149998 -1.618
-11.258 -6.152 -1.618
-11.285 -6.1890001 -1.624
-11.267 -6.2259998 -1.624
-11.251 -6.263 -1.625
-11.233 -6.2989998 -1.625
-11.208 -6.3309999 -1.624
-11.186 -6.3660002 -1.624
-11.163 -6.3990002 -1.623
-11.136 -6.4299998 -1.622
-11.127 -6.448 -1.622
-11.112 -6.4860001 -1.623
-11.073 -6.5100002 -1.62
-11.056 -6.5469999 -1.6210001
-11.044 -6.5869999 -1.622
-11.011 -6.6139998 -1.62
-10.985 -6.6459999 -1.619
-10.975 -6.6630001 -1.619
-10.95 -6.6950002 -1.619
-10.912 -6.7189999 -1.6160001
-9.9809999 -6.1919999 -1.465
-9.9379997 -6.2090001 -1.461
-9.9090004 -6.2340002 -1.459
-9.9060001 -6.2750001 -1.462
-10.59 -6.73 -1.5779999
-10.786 -6.902 -1.615
-10.716 -6.9039998 -1.6059999
-10.736 -6.9650002 -1.613
-10.709 -6.9949999 -1.613
-10.681 -7.0250001 -1.6109999
-10.655 -7.0560002 -1.6109999
-10.639 -7.0689998 -1.61
-10.615 -7.1020002 -1.61
-10.591 -7.1339998 -1.61
-10.562 -7.1630001 -1.608
-10.536 -7.1939998 -1.608
-10.507 -7.2220001 -1.607
-10.478 -7.2509999 -1.6059999
-20.573 -3.7650001 -1.597
-10.439 -7.2969999 -1.605
-10.419 -7.3319998 -1.605
-10.258 -7.2670002 -1.581
-4.2179999 -13.055 0.097999997
-4.198 -13.135 0.097000003
-4.1789999 -13.217 0.097000003
-4.1620002 -13.308 0.096000001
-4.1599998 -13.378 0.096000001
-4.1459999 -13.481 0.094999999
-10.164 -7.566 -1.595
-10.14 -7.598 -1.595
-10.113 -7.6269999 -1.595
-10.098 -7.6409998 -1.594
-10.066 -7.6669998 -1.5930001
-10.051 -7.7049999 -1.595
-10.013 -7.7259998 -1.592
-9.993 -7.7610002 -1.5930001
-9.9580002 -7.7839999 -1.591
-9.9359999 -7.8179998 -1.592
-9.8380003 -7.7659998 -1.576
-9.8900003 -7.8569999 -1.59
-9.8579998 -7.882 -1.5880001
-9.8269997 -7.908 -1.587
-9.8000002 -7.9369998 -1.587
-9.7690001 -7.9629998 -1.586
-9.7349997 -7.9860001 -1.584
-9.7080002 -7.9899998 -1.582
-9.6850004 -8.0220003 -1.582
-9.6549997 -8.0489998 -1.581
-20.545 -3.8269999 -1.596
-9.5979996 -8.1040001 -1.58
-9.5620003 -8.125 -1.5779999
-9.526 -8.1459999 -1.576
-9.507 -8.1560001 -1.575
-9.4750004 -8.1809998 -1.574
-9.4300003 -8.1940002 -1.5700001
-9.4029999 -8.2220001 -1.5700001
-9.3640003 -8.2399998 -1.567
-9.3380003 -8.2690001 -1.567
-9.2980003 -8.2860003 -1.5650001
-9.276 -8.2930002 -1.563
-9.2550001 -8.3260002 -1.564
-9.2010002 -8.3299999 -1.559
-9.1739998 -8.3590002 -1.559
-9.1420002 -8.382 -1.558
-9.0810003 -8.3789997 -1.551
-9.0819998 -8.4329996 -1.556
-9.0489998 -8.4280005 -1.552
-9.0050001 -8.4399996 -1.549
-8.9779997 -8.4689999 -1.549
-8.967 -8.5120001 -1.552
-8.9130001 -8.5139999 -1.5470001
-8.8909998 -8.5459995 -1.548
-8.8579998 -8.5679998 -1.546
-8.8400002 -8.5780001 -1.546
-8.7980003 -8.5909996 -1.5420001
-8.7810001 -8.6280003 -1.544
-8.7390003 -8.6420002 -1.5420001
-8.6969995 -8.6540003 -1.539
-20.516001 -3.888 -1.594
-8.6300001 -8.6960001 -1.536
-8.6020002 -8.7229996 -1.536
-8.5889997 -8.7360001 -1.536
-8.5530005 -8.7550001 -1.534
-8.5209999 -8.7770004 -1.534
-8.4870005 -8.7969999 -1.5319999
-8.4589996 -8.823 -1.5319999
-8.4259996 -8.8439999 -1.531
-8.3690004 -8.8409996 -1.525
-8.3570004 -8.8549995 -1.525
-8.3120003 -8.8640003 -1.522
-8.2889996 -8.8940001 -1.523
-8.2530003 -8.9119997 -1.521
-8.2139997 -8.9259996 -1.5190001
-8.1920004 -8.9589996 -1.52
-8.1450005 -8.9639997 -1.516
-8.125 -8.9700003 -1.515
-8.0930004 -8.9910002 -1.5140001
-8.0679998 -9.0209999 -1.515
-8.0319996 -9.0369997 -1.513
-7.9889998 -9.0459995 -1.51
-7.9510002 -9.0609999 -1.508
-7.927 -9.0609999 -1.506
-7.8930001 -9.0799999 -1.505
-7.8569999 -9.0959997 -1.503
-7.8319998 -9.125 -1.5039999
-7.8010001 -9.1470003 -1.5039999
-7.7579999 -9.1540003 -1.5
-7.7119999 -9.1590004 -1.497
-20.468 -3.9460001 -1.591
-7.6360002 -9.1560001 -1.49
-7.598 -9.1689997 -1.488
-7.573 -9.198 -1.488
-7.5339999 -9.2089996 -1.4859999
-7.4780002 -9.1990004 -1.48
-7.441 -9.2130003 -1.478
-7.145 -8.9049997 -1.418
-7.1199999 -8.9020004 -1.415
-7.0809999 -8.9110003 -1.413
-7.0409999 -8.9169998 -1.41
-6.9990001 -8.9219999 -1.4069999
-6.9619999 -8.9329996 -1.405
-6.9260001 -8.9440002 -1.403
-6.8889999 -8.9549999 -1.401
-6.862 -8.9490004 -1.398
-6.8239999 -8.9580002 -1.396
-6.7859998 -8.9659996 -1.3940001
-6.7509999 -8.9779997 -1.392
-6.711 -8.9829998 -1.3890001
-6.677 -8.9969997 -1.388
-6.632 -8.9949999 -1.3839999
-6.6110001 -8.9960003 -1.382
-6.5739999 -9.0059996 -1.38
-6.5380001 -9.0150003 -1.378
-6.4949999 -9.0159998 -1.375
-6.46 -9.0270004 -1.373
-6.4190001 -9.0290003 -1.37
-6.3850002 -9.0419998 -1.369
-6.4109998 -9.1079998 -1.378
-20.417 -4.0019999 -1.5880001
-6.4429998 -9.2770004 -1.401
-6.4530001 -9.3540001 -1.41
-6.4450002 -9.4049997 -1.416
-6.3990002 -9.401 -1.4119999
-6.3569999 -9.4029999 -1.408
-6.3390002 -9.408 -1.408
-6.3010001 -9.4160004 -1.406
-6.2589998 -9.4160004 -1.402
-6.2160001 -9.4160004 -1.399
-6.1789999 -9.4239998 -1.397
-6.1430001 -9.4329996 -1.395
-6.0999999 -9.4320002 -1.392
-6.0830002 -9.4390001 -1.391
-6.0549998 -9.4610004 -1.392
-6.0110002 -9.4569998 -1.388
-5.927 -9.3900003 -1.374
-5.8520002 -9.3369999 -1.362
-5.8099999 -9.335 -1.358
-5.7779999 -9.3479996 -1.357
-5.8130002 -9.4379997 -1.3710001
-5.7979999 -9.4799995 -1.375
-5.757 -9.4790001 -1.372
-5.7210002 -9.4870005 -1.37
-5.6820002 -9.4899998 -1.368
-5.6490002 -9.5030003 -1.367
-5.6090002 -9.5030003 -1.364
-5.5910001 -9.507 -1.363
-5.5560002 -9.5159998 -1.362
-5.5170002 -9.5179996 -1.359
-5.473 -9.5109997 -1.355
-5.4380002 -9.5200005 -1.354
-5.4109998 -9.5419998 -1.355
-5.3720002 -9.5419998 -1.352
-5.3429999 -9.526 -1.348
-5.2859998 -9.4940004 -1.34
-5.2690001 -9.5340004 -1.344
-5.2350001 -9.5430002 -1.3430001
-5.2010002 -9.5530005 -1.341
-5.164 -9.5570002 -1.34
-5.1350002 -9.5749998 -1.34
-5.1009998 -9.5480003 -1.334
-5.0689998 -9.5579996 -1.3329999
-5.033 -9.5640001 -1.332
-5.0029998 -9.5799999 -1.332
-4.9689999 -9.5880003 -1.331
-4.9229999 -9.5719995 -1.326
-4.8959999 -9.5950003 -1.327
-4.875 -9.5900002 -1.325
-4.8670001 -9.6490002 -1.332
-4.855 -9.7019997 -1.3380001
-4.842 -9.7519999 -1.3430001
-4.8070002 -9.7589998 -1.342
-4.7389998 -9.6969995 -1.33
-4.6999998 -9.6940002 -1.327
-4.6659999 -9.7019997 -1.326
-4.6529999 -9.7150002 -1.327
-4.7529998 -10.001 -1.369
-4.7740002 -10.127 -1.387
-4.743 -10.143 -1.387
-20.334 -4.119 -1.5829999
-4.652 -10.115 -1.378
-4.6170001 -10.123 -1.377
-4.5929999 -10.112 -1.374
-4.5469999 -10.094 -1.369
-4.507 -10.09 -1.3660001
-4.4640002 -10.079 -1.362
-4.4239998 -10.075 -1.359
-4.4000001 -10.107 -1.362
-4.4060001 -10.163 -1.37
-4.3940001 -10.222 -1.377
-6.4520001 -9.0489998 -1.033
-4.3660002 -10.335 -1.39
-6.4390001 -8.9949999 -0.81599998
-4.3400002 -10.455 -1.404
-4.3270001 -10.518 -1.4119999
-4.3280001 -10.567 -1.418
-4.3169999 -10.636 -1.427
-4.303 -10.697 -1.434
-4.289 -10.76 -1.442
-4.2740002 -10.819 -1.449
-4.5139999 -11.529 -1.5549999
-4.5 -11.599 -1.563
-4.4780002 -11.652 -1.569
-4.4809999 -11.714 -1.577
-4.454 -11.754 -1.581
-4.4239998 -11.786 -1.584
-4.1750002 -13.046 -0.97600001
-4.3639998 -11.851 -1.59
-4.3280001 -11.869 -1.59
-4.316 -11.892 -1.5930001
-4.2859998 -11.928 -1.596
-4.257 -11.964 -1.599
-4.2129998 -11.96 -1.597
-4.1799998 -11.985 -1.599
-4.1459999 -12.011 -1.601
-4.1139998 -12.039 -1.603
-4.099 -12.058 -1.605
-4.0640001 -12.079 -1.6059999
-4.0250001 -12.089 -1.6059999
-3.997 -12.132 -1.61
-6.402 -9.0380001 -1.029
-3.931 -12.187 -1.615
-3.8929999 -12.201 -1.615
-3.8789999 -12.224 -1.617
-3.8399999 -12.235 -1.617
-3.813 -12.282 -1.622
-3.773 -12.289 -1.622
-3.7349999 -12.304 -1.622
-3.701 -12.329 -1.624
-3.6689999 -12.365 -1.628
-3.6340001 -12.39 -1.63
-3.619 -12.411 -1.632
-3.576 -12.407 -1.63
-3.539 -12.426 -1.631
-3.5050001 -12.454 -1.633
-3.4679999 -12.473 -1.6339999
-3.4330001 -12.501 -1.637
-3.395 -12.515 -1.638
-5.1890001 -9.5679998 -1.007
18.792999 -28.575001 -0.064000003
18.834999 -28.444 -0.063000001
18.950001 -28.423 -0.063000001
18.996 -28.299 -0.063000001
-4.5619998 -11.274 0.11
-6.4190001 -9.1230001 -1.0369999
-5.1810002 -9.4259996 -0.405
-6.6919999 -8.9689999 -0.89899999
-1.0880001 -18.441999 -1.614
-6.4239998 -9.1920004 -1.044
-6.441 -9.2779999 -1.053
-3.099 -14.275 -1.594
-6.454 -9.3599997 -1.061
-5.171 -9.4940004 -0.79299998
-3.6070001 -17.451 0.69800001
-13.377 -3.0079999 -0.97799999
-6.4180002 -9.4020004 -1.063
2.8269999 -31.245001 -0.80000001
-13.403 -3.0580001 -0.98100001
-3.9809999 -13.776 -1.561
-6.3829999 -9.4139996 -1.062
-19.084 -4.9460001 0.65700001
-13.315 -3.082 -0.97399998
-6.3499999 -9.4289999 -1.061
-2.3069999 -18.940001 -1.553
-13.286 -3.119 -0.972
-1.867 -24.848 -0.14399999
-6.3070002 -9.4289999 -1.058
-13.009 -3.1830001 -0.94999999
-3.5639999 -17.521 0.69999999
-5.125 -9.5939999 -1.007
-13.24 -3.2620001 -0.97100002
-6.2309999 -9.4440002 -1.0549999
-2.678 -17.709 -1.559
-13.057 -3.2609999 -0.95599997
-4.3969998 -11.826 -1.5880001
-0.97399998 -18.497999 -1.619
-6.1869998 -9.4420004 -1.052
-5.0079999 -9.5249996 -0.85699999
-11.131 -3.122 -1.4910001
-11.136 -3.142 -1.492
3.9760001 -34.334999 -0.90200001
-11.469 -4.9029999 -1.624
-11.386 -4.9099998 -1.613
-11.354 -4.9390001 -1.6109999
-16.613001 -4.2119999 -1.272
-11.318 -5.0079999 -1.61
-11.218 -5.6760001 -1.638
-11.101 -5.6609998 -1.622
-11.084 -5.941 -1.6390001
-11.069 -5.9770002 -1.6390001
-11.038 -6.0050001 -1.637
-11.011 -6.0349998 -1.636
-10.941 -6.0419998 -1.628
-10.937 -6.0619998 -1.628
-10.92 -6.0970001 -1.6289999
-10.918 -6.1409998 -1.632
-10.898 -6.1760001 -1.632
-10.886 -6.2140002 -1.633
-10.854 -6.2410002 -1.631
-10.843 -6.2800002 -1.632
-10.833 -6.2969999 -1.632
-10.798 -6.322 -1.63
-10.771 -6.3520002 -1.628
-10.763 -6.3930001 -1.63
-10.762 -6.4380002 -1.6339999
-10.762 -6.4840002 -1.637
-10.569 -6.4130001 -1.608
-10.711 -6.5219998 -1.6339999
-10.672 -6.5440001 -1.63
-10.086 -6.2270002 -1.533
-9.9639997 -6.1950002 -1.516
-9.9300003 -6.217 -1.513
-9.9329996 -6.263 -1.517
-9.9390001 -6.3099999 -1.521
-16.573 -4.257 -1.27
-10.301 -6.6100001 -1.59
-10.266 -6.632 -1.587
-10.434 -6.7880001 -1.62
-10.44 -6.8390002 -1.625
-10.265 -6.77 -1.598
-10.394 -6.9029999 -1.624
-10.396 -6.928 -1.627
-10.366 -6.9549999 -1.625
-10.341 -6.9850001 -1.625
-10.321 -7.0190001 -1.625
-10.295 -7.0489998 -1.624
-10.273 -7.0809999 -1.624
-10.244 -7.1090002 -1.623
-10.23 -7.1230001 -1.623
-10.209 -7.1560001 -1.623
-10.17 -7.1760001 -1.62
-10.099 -7.1739998 -1.6109999
-10.122 -7.2379999 -1.619
-9.9449997 -7.4229999 -1.615
-9.9230003 -7.4549999 -1.615
-9.8839998 -7.474 -1.612
-9.8789997 -7.4949999 -1.613
-9.8529997 -7.5250001 -1.613
-9.823 -7.5510001 -1.612
-9.8009996 -7.5830002 -1.612
-9.776 -7.612 -1.612
-9.7460003 -7.638 -1.6109999
-9.7200003 -7.6669998 -1.61
-9.6999998 -7.6760001 -1.609
-9.6820002 -7.7119999 -1.61
-9.6470003 -7.7340002 -1.608
-9.6120005 -7.7550001 -1.6059999
-9.5780001 -7.7779999 -1.604
-9.5570002 -7.8099999 -1.605
-9.5279999 -7.836 -1.604
-9.5080004 -7.8449998 -1.602
-9.4879999 -7.8790002 -1.603
-9.4390001 -7.888 -1.599
-9.4200001 -7.9229999 -1.6
-9.3839998 -7.9429998 -1.598
-9.3520002 -7.9660001 -1.596
-9.3190002 -7.9889998 -1.595
-9.2980003 -7.9959998 -1.5930001
-9.2559996 -8.0109997 -1.59
-9.2340002 -8.0430002 -1.591
-9.2030001 -8.0670004 -1.589
-9.1619997 -8.0819998 -1.587
-9.118 -8.0939999 -1.5829999
-9.1099997 -8.1379995 -1.586
-9.0690002 -8.1269999 -1.581
-9.0410004 -8.1529999 -1.58
-9.0209999 -8.1870003 -1.581
-8.9720001 -8.1940002 -1.577
-8.934 -8.2110004 -1.574
-8.9119997 -8.2419996 -1.575
-8.835 -8.2229996 -1.5650001
-8.8240004 -8.2639999 -1.568
-8.8179998 -8.2849998 -1.569
-8.7889996 -8.3100004 -1.569
-8.7530003 -8.3280001 -1.567
-8.7180004 -8.3470001 -1.5650001
-8.6870003 -8.3699999 -1.564
-8.6680002 -8.4040003 -1.5650001
-8.625 -8.415 -1.562
-8.6099997 -8.427 -1.562
-8.5810003 -8.4510002 -1.561
-8.5570002 -8.4809999 -1.562
-8.5129995 -8.4910002 -1.558
-8.4910002 -8.5220003 -1.559
-8.4469995 -8.5310001 -1.556
-8.415 -8.552 -1.554
-8.4060001 -8.5699997 -1.5549999
-8.3789997 -8.5959997 -1.5549999
-8.3500004 -8.6210003 -1.5549999
-8.3219995 -8.6459999 -1.5549999
-8.2910004 -8.6680002 -1.554
-8.257 -8.6859999 -1.552
-8.2460003 -8.7019997 -1.553
-8.217 -8.7270002 -1.553
-8.1920004 -8.7550001 -1.553
-8.1520004 -8.7679996 -1.551
-8.1099997 -8.7770004 -1.5470001
-8.0609999 -8.7790003 -1.543
-8.0439997 -8.816 -1.545
-8.0170002 -8.8140001 -1.5420001
-7.9920001 -8.8430004 -1.543
-7.9580002 -8.8599997 -1.541
-7.9190001 -8.8730001 -1.539
-7.8909998 -8.8979998 -1.539
-7.8569999 -8.915 -1.538
-7.822 -8.9329996 -1.536
-7.7989998 -8.9630003 -1.5369999
-7.7659998 -8.9530001 -1.533
-7.7290001 -8.967 -1.531
-7.704 -8.9960003 -1.5319999
-7.6890001 -9.0349998 -1.535
-7.6589999 -9.0570002 -1.534
-7.6240001 -9.0740004 -1.533
-7.5840001 -9.0839996 -1.53
-7.5609999 -9.085 -1.528
-7.5310001 -9.1070004 -1.528
-7.4860001 -9.1110001 -1.524
-7.4549999 -9.132 -1.524
-7.408 -9.132 -1.5190001
-7.3740001 -9.1490002 -1.518
-7.1430001 -8.9180002 -1.471
-7.1129999 -8.9090004 -1.467
-7.0760002 -8.9209995 -1.465
-7.0359998 -8.927 -1.462
-6.9970002 -8.9350004 -1.46
-13.133 -3.7950001 0.51999998
-6.9229999 -8.9560003 -1.455
-6.8829999 -8.9619999 -1.452
-6.8610001 -8.9630003 -1.451
-6.822 -8.9700003 -1.448
-6.7870002 -8.9820004 -1.446
-6.7470002 -8.9879999 -1.443
-6.7080002 -8.9940004 -1.441
-6.6700001 -9.0030003 -1.439
-6.6350002 -9.0139999 -1.437
-6.6090002 -9.0080004 -1.434
-6.5739999 -9.0200005 -1.432
-6.5289998 -9.0179996 -1.428
-5.9770002 -9.4729996 -1.0420001
-6.4619999 -9.0439997 -1.425
-6.4219999 -9.0480003 -1.423
-6.3940001 -9.0679998 -1.423
-6.4169998 -9.132 -1.432
-6.4320002 -9.2150002 -1.443
-6.4419999 -9.2910004 -1.4529999
-6.4549999 -9.3730001 -1.464
-6.4260001 -9.3950005 -1.465
-6.3909998 -9.4069996 -1.4630001
-6.3509998 -9.4110003 -1.46
-6.3319998 -9.4139996 -1.459
-6.2909999 -9.4169998 -1.456
-6.2529998 -9.4239998 -1.454
-6.2179999 -9.4350004 -1.452
-6.178 -9.4399996 -1.45
-6.1370001 -9.441 -1.447
-6.1069999 -9.46 -1.447
-6.0799999 -9.4510002 -1.443
-6.0430002 -9.4589996 -1.441
-6.0079999 -9.4689999 -1.4400001
-5.9699998 -9.4750004 -1.438
-5.8629999 -9.3690004 -1.416
-5.8150001 -9.3570004 -1.411
-5.783 -9.3719997 -1.41
-5.8249998 -9.474 -1.426
-5.7940001 -9.4899998 -1.426
-5.7659998 -9.5100002 -1.426
-5.7189999 -9.5010004 -1.4220001
-5.6849999 -9.5120001 -1.421
-5.895 -9.4069996 -1.031
-5.6059999 -9.5139999 -1.415
-5.5819998 -9.507 -1.4119999
-5.5500002 -9.5209999 -1.4119999
-5.5079999 -9.5179996 -1.408
-5.4679999 -9.5179996 -1.405
-5.4419999 -9.5419998 -1.406
-5.401 -9.5380001 -1.403
-5.3639998 -9.5430002 -1.401
-5.3470001 -9.5480003 -1.4
-5.2870002 -9.5109997 -1.391
-5.2690001 -9.5489998 -1.395
-5.2379999 -9.5629997 -1.395
-5.197 -9.5609999 -1.391
-5.164 -9.5719995 -1.391
-5.1329999 -9.5839996 -1.39
-5.0869999 -9.5710001 -1.385
-5.066 -9.5679998 -1.383
-5.0370002 -9.5860004 -1.3839999
-4.9920001 -9.573 -1.3789999
-5.0949998 -9.533 -0.79299998
-4.9310002 -9.6029997 -1.3789999
-4.8920002 -9.6009998 -1.376
-4.8649998 -9.6230001 -1.377
-4.8649998 -9.6610003 -1.382
-4.8590002 -9.7259998 -1.39
-4.849 -9.7819996 -1.397
-4.8000002 -9.7589998 -1.391
-4.73 -9.6929998 -1.377
-4.6960001 -9.6999998 -1.376
-5.8470001 -9.3640003 -1.025
-4.6599998 -9.7440004 -1.38
-4.7750001 -10.066 -1.429
-4.7709999 -10.14 -1.439
-4.737 -10.152 -1.438
-4.6939998 -10.143 -1.434
-4.651 -10.133 -1.4299999
-4.6279998 -10.124 -1.428
-4.585 -10.115 -1.424
-4.5489998 -10.118 -1.4220001
-4.5050001 -10.105 -1.418
-4.46 -10.09 -1.413
-4.4239998 -10.094 -1.4119999
-4.4000001 -10.126 -1.415
-4.3870001 -10.183 -1.421
-4.3930001 -10.241 -1.4299999
-4.3800001 -10.3 -1.437
-4.3649998 -10.356 -1.443
-5.0510001 -9.599 -1.003
-4.336 -10.471 -1.457
-4.3239999 -10.536 -1.465
-4.3270001 -10.592 -1.473
-4.3109999 -10.648 -1.48
-4.2969999 -10.711 -1.488
-4.283 -10.772 -1.495
-4.2849998 -10.878 -1.51
-4.467 -11.45 -1.597
-4.4390001 -11.485 -1.6
-4.4239998 -11.499 -1.602
-4.3930001 -11.526 -1.604
-5.8150001 -9.3780003 -1.024
-4.329 -11.575 -1.607
-4.2940001 -11.595 -1.608
-4.257 -11.606 -1.608
-4.2249999 -11.631 -1.609
-4.2119999 -11.654 -1.612
-4.1799998 -11.68 -1.614
-4.145 -11.697 -1.615
-4.1139998 -11.727 -1.617
-4.0760002 -11.736 -1.617
-4.0440001 -11.764 -1.619
-4.0089998 -11.782 -1.62
-3.973 -11.798 -1.62
-3.9590001 -11.816 -1.622
-3.9260001 -11.843 -1.624
-3.891 -11.861 -1.625
-3.8570001 -11.883 -1.627
-13.014 -3.938 0.51800001
-3.783 -11.91 -1.627
-3.753 -11.945 -1.631
-3.7390001 -11.968 -1.633
-3.704 -11.987 -1.6339999
-3.671 -12.014 -1.637
-3.6340001 -12.027 -1.637
-4.3509998 -12.274 -1.079
-5.7989998 -9.4180002 -1.027
-4.8920002 -9.6239996 -0.99800003
-12.986 -3.974 0.51800001
-4.2509999 -12.618 -1.108
-5.8119998 -9.507 -1.036
-2.052 -17.931 -1.573
-12.985 -3.9960001 0.51800001
-13.232 -3.8859999 -0.98500001
-5.7680001 -9.5019999 -1.033
-4.164 -13.109 -1.151
-4.1560001 -13.127 -0.98299998
-12.963 -4.0339999 0.51700002
-13.142 -3.904 -0.977
-5.7360001 -9.5159998 -1.033
-4.0689998 -13.622 -1.196
-12.956 -4.0770001 0.51800001
-5.0190001 -9.6120005 -1.003
-13.116 -3.941 -0.97600001
-4.5650001 -11.333 0.11
-3.8659999 -14.503 -1.557
-5.697 -9.5190001 -1.031
-4.0120001 -14.334 -1.262
-12.957 -4.1209998 0.51800001
-13.062 -3.9690001 -0.97299999
-5.6739998 -9.5139999 -1.029
-12.978 -4.1729999 0.51899999
-13.061 -4.0139999 -0.97399998
-3.8510001 -14.741 -1.296
-3.8340001 -14.865 -1.308
-5.6399999 -9.5249996 -1.028
-12.999 -4.2249999 0.51999998
-13.004 -4.0409999 -0.97000003
-3.714 -15.401 -1.3559999
-5.6030002 -9.5310001 -1.026
-1.757 -18.124001 -1.5880001
-4.8769999 -9.6689997 -1.001
-1.699 -27.327 -0.0099999998
-12.988 -4.0809999 -0.96899998
-3.335 -17.518999 0.699
-5.5580001 -9.5229998 -1.023
-3.5840001 -16.080999 -1.418
-4.9809999 -9.6110001 -1.001
-12.981 -4.1009998 -0.96899998
-5.5240002 -9.533 -1.022
-3.4430001 -16.815001 -1.4859999
-5.0669999 -9.6079998 -0.41100001
-12.966 -4.1409998 -0.96899998
-3.2490001 -17.396999 -1.538
-12.967 -4.1859999 -0.97000003
-12.965 -4.2309999 -0.97100002
-2.9690001 -17.573999 -1.55
-2.9159999 -17.599001 -1.552
-10.312 -6.1160002 -1.6390001
-10.276 -6.138 -1.636
-10.245 -6.1630001 -1.6339999
-10.108 -6.125 -1.613
-10.109 -6.1690001 -1.617
-9.9840002 -6.1360002 -1.598
-9.9910002 -6.1620002 -1.601
-9.9180002 -6.1599998 -1.591
-9.9189997 -6.204 -1.595
-9.9219999 -6.2490001 -1.599
-9.9060001 -6.283 -1.6
-9.9379997 -6.3470001 -1.609
-9.8610001 -6.342 -1.599
-9.901 -6.3889999 -1.608
-9.9289999 -6.4510002 -1.617
-9.8430004 -6.4390001 -1.604
-9.948 -6.553 -1.627
-12.978 -4.2800002 -0.97399998
-9.5640001 -7.223 -1.6390001
-9.54 -7.2519999 -1.638
-9.5190001 -7.283 -1.6390001
-9.4949999 -7.2880001 -1.636
-9.4840002 -7.3280001 -1.6390001
-9.4390001 -7.3410001 -1.6339999
-9.4160004 -7.3699999 -1.6339999
-9.3929996 -7.4000001 -1.6339999
-9.3529997 -7.4159999 -1.631
-9.3310003 -7.4460001 -1.631
-9.3249998 -7.4660001 -1.633
-9.276 -7.474 -1.627
-9.2639999 -7.513 -1.63
-9.2320004 -7.5349998 -1.628
-9.1960001 -7.5539999 -1.626
-9.1660004 -7.5780001 -1.624
-9.1450005 -7.6090002 -1.625
-9.1160002 -7.6090002 -1.622
-9.0860004 -7.6329999 -1.62
-9.0559998 -7.6560001 -1.619
-9.0319996 -7.6849999 -1.619
-9.0030003 -7.7090001 -1.618
-8.9729996 -7.7319999 -1.617
-8.9440002 -7.757 -1.6160001
-8.9180002 -7.783 -1.6160001
-8.8929996 -7.7859998 -1.613
-12.995 -4.3309999 -0.97600001
-8.8319998 -7.8309999 -1.6109999
-8.8070002 -7.8590002 -1.6109999
-8.776 -7.881 -1.61
-8.7469997 -7.9050002 -1.609
-8.7089996 -7.9200001 -1.6059999
-8.691 -7.928 -1.605
-8.6669998 -7.9569998 -1.605
-8.6409998 -7.9829998 -1.605
-8.6009998 -7.9970002 -1.602
-8.573 -8.0209999 -1.601
-8.5349998 -8.0360003 -1.598
-8.5030003 -8.0559998 -1.597
-8.4910002 -8.0699997 -1.597
-8.46 -8.0909996 -1.596
-8.4250002 -8.1079998 -1.594
-8.3879995 -8.1239996 -1.591
-8.3579998 -8.1459999 -1.59
-8.3269997 -8.1669998 -1.589
-8.3240004 -8.1890001 -1.591
-8.2910004 -8.2089996 -1.59
-8.257 -8.2259998 -1.5880001
-8.2279997 -8.2489996 -1.587
-8.1990004 -8.2720003 -1.587
-8.1639996 -8.2880001 -1.585
-8.1420002 -8.3179998 -1.586
-8.1219997 -8.3240004 -1.584
-8.0939999 -8.3479996 -1.584
-8.0649996 -8.3699999 -1.5829999
-8.0299997 -8.3870001 -1.581
-7.9990001 -8.4069996 -1.58
-7.9749999 -8.4350004 -1.581
-7.9369998 -8.448 -1.5779999
-7.9099998 -8.4720001 -1.5779999
-7.8979998 -8.4849997 -1.5779999
-7.8600001 -8.4989996 -1.576
-7.835 -8.5249996 -1.576
-7.8039999 -8.5450001 -1.575
-7.7800002 -8.5719995 -1.576
-7.7459998 -8.5889997 -1.574
-7.71 -8.6029997 -1.572
-7.6950002 -8.6140003 -1.572
-7.678 -8.6499996 -1.574
-7.6469998 -8.6700001 -1.574
-7.619 -8.6920004 -1.573
-7.5739999 -8.6969995 -1.569
-7.5419998 -8.7139997 -1.568
-7.5159998 -8.7399998 -1.568
-7.5050001 -8.7539997 -1.569
-7.4689999 -8.7690001 -1.567
-7.4460001 -8.7969999 -1.568
-7.415 -8.8170004 -1.567
-7.3790002 -8.8299999 -1.5650001
-7.3449998 -8.8450003 -1.564
-7.3119998 -8.8620005 -1.563
-7.3049998 -8.8830004 -1.564
-7.2649999 -8.8909998 -1.561
-7.2360001 -8.9119997 -1.561
-7.191 -8.915 -1.557
-7.1389999 -8.9060001 -1.551
-7.1020002 -8.9180002 -1.549
-7.0619998 -8.9250002 -1.546
-7.0339999 -8.9189997 -1.543
-6.9959998 -8.9280005 -1.54
-6.9549999 -8.9329996 -1.5369999
-6.9169998 -8.9420004 -1.534
-6.8909998 -8.967 -1.535
-6.8439999 -8.9639997 -1.53
-6.8049998 -8.9709997 -1.527
-6.7810001 -8.9689999 -1.525
-6.7470002 -8.9820004 -1.524
-6.7059999 -8.9860001 -1.52
-6.6700001 -8.9980001 -1.518
-6.6360002 -9.0109997 -1.517
-6.5929999 -9.0109997 -1.513
-6.5489998 -9.0109997 -1.5089999
-6.533 -9.0179996 -1.508
-6.4889998 -9.0170002 -1.5039999
-6.4689999 -9.0489998 -1.507
-6.4200001 -9.04 -1.501
-6.395 -9.0649996 -1.502
-6.401 -9.1350002 -1.511
-6.4180002 -9.2200003 -1.524
-6.448 -9.2939997 -1.535
-6.4400001 -9.3450003 -1.541
-6.414 -9.3699999 -1.5420001
-6.3790002 -9.382 -1.54
-6.3530002 -9.4069996 -1.541
-6.3130002 -9.4119997 -1.539
-6.2740002 -9.4169998 -1.536
-6.2540002 -9.4200001 -1.535
-6.2069998 -9.4130001 -1.53
-6.1739998 -9.4280005 -1.529
-6.1360002 -9.434 -1.527
-6.0949998 -9.4350004 -1.523
-6.0570002 -9.4420004 -1.521
-6.0170002 -9.4449997 -1.518
-6.0009999 -9.4530001 -1.518
-5.9660001 -9.4630003 -1.516
-5.8379998 -9.3260002 -1.488
-34.290001 13.671 -0.31200001
-34.262001 13.536 -0.31099999
-34.215 13.393 -0.30899999
-34.091 13.221 -0.30700001
-34.125999 13.112 -0.30700001
-34.068001 12.967 -0.30500001
-34.006001 12.882 -0.30399999
-33.946999 12.738 -0.303
-33.895 12.598 -0.301
-33.849998 12.46 -0.30000001
-33.792999 12.319 -0.29899999
-33.737999 12.179 -0.29699999
-33.699001 12.045 -0.296
-33.647999 11.908 -0.29499999
-33.574001 11.823 -0.29300001
-33.523998 11.687 -0.292
-33.472 11.551 -0.29100001
-33.424999 11.417 -0.28999999
-33.375 11.283 -0.28799999
-33.323002 11.149 -0.287
-33.261002 11.013 -0.28600001
-33.199001 10.934 -0.28400001
-33.133999 10.798 -0.28299999
-33.084 10.667 -0.28200001
-33.023998 10.533 -0.28
-32.98 10.405 -0.27900001
-32.914001 10.271 -0.278
-32.863998 10.142 -0.27700001
-32.792999 10.064 -0.27500001
-32.738998 9.9350004 -0.27399999
-32.669998 9.802 -0.273
-32.624001 9.677 -0.271
-32.557999 9.5459995 -0.27000001
-32.495998 9.4169998 -0.26899999
-32.443001 9.2910004 -0.26699999
-32.367001 9.2150002 -0.266
-32.305 9.0880003 -0.26499999
-32.257999 8.9650002 -0.264
-32.195999 8.8389997 -0.26199999
-32.139999 8.7150002 -0.26100001
-32.081001 8.5909996 -0.25999999
-32.008999 8.4639997 -0.259
-31.943001 8.3929996 -0.257
-31.889999 8.2720003 -0.25600001
-31.815001 8.1459999 -0.255
-31.754999 8.0249996 -0.25400001
-31.704 7.9060001 -0.252
-31.628 7.7820001 -0.25099999
-31.584 7.6659999 -0.25
-31.493 7.539 -0.248
-31.419001 7.4699998 -0.24699999
-31.367001 7.3530002 -0.24600001
-31.308001 7.2360001 -0.245
-31.237 7.1160002 -0.244
-31.174999 6.9990001 -0.242
-31.108999 6.882 -0.241
-31.058001 6.7680001 -0.23999999
-30.975 6.6989999 -0.23899999
-30.952999 6.5929999 -0.23800001
-31.049999 6.5110002 -0.23899999
-31.132999 6.427 -0.23999999
-31.077999 6.3140001 -0.23899999
-30.997999 6.1960001 -0.23800001
-30.933001 6.0819998 -0.236
-30.882 6.0219998 -0.235
-30.818001 5.9089999 -0.234
-30.756001 5.7969999 -0.233
-30.656 5.6789999 -0.23100001
-30.565001 5.5630002 -0.23
-30.173 5.3940001 -0.22400001
-30.101 5.2839999 -0.223
-30.028999 5.2220001 -0.222
-29.938 5.1100001 -0.22
-29.872999 5.0019999 -0.219
-29.796 4.8930001 -0.21799999
-29.726999 4.7859998 -0.21699999
-29.653 4.6789999 -0.215
-29.57 4.5710001 -0.214
-29.51 4.5139999 -0.213
-29.433001 4.408 -0.212
-29.346001 4.3010001 -0.20999999
-29.285999 4.198 -0.20900001
-29.214001 4.0939999 -0.208
-29.136 3.99 -0.207
-29.069 3.888 -0.206
-28.993 3.7850001 -0.204
-28.917999 3.7290001 -0.20299999
-28.841999 3.6270001 -0.20200001
-28.768 3.526 -0.20100001
-28.688 3.425 -0.199
-28.645 3.329 -0.199
-5.1539998 -9.5740004 -1.006
-0.71499997 -18.568001 -1.625
-28.111 2.687 -0.19
-28.042 2.5910001 -0.189
-27.974001 2.5409999 -0.18799999
-27.886999 2.4449999 -0.18700001
-27.82 2.3510001 -0.186
-27.733999 2.256 -0.184
-27.665001 2.1630001 -0.183
-27.59 2.0699999 -0.182
-27.525 1.978 -0.18099999
-27.445 1.886 -0.18000001
-27.372 1.8380001 -0.17900001
-27.254 1.744 -0.177
-27.187 1.654 -0.176
-27.105 1.564 -0.175
-27.037001 1.475 -0.17399999
-26.958 1.386 -0.17299999
-26.898001 1.298 -0.17200001
-26.816 1.252 -0.171
-26.736 1.164 -0.17
-26.67 1.077 -0.169
-26.591 0.99000001 -0.167
-26.507999 0.90399998 -0.16599999
-26.433001 0.81800002 -0.16500001
-26.356001 0.73299998 -0.164
-26.278999 0.69 -0.163
-26.197001 0.60500002 -0.162
-26.117001 0.52200001 -0.161
-26.042 0.43799999 -0.16
-25.961 0.35499999 -0.15800001
-25.889999 0.273 -0.15700001
-25.806999 0.191 -0.156
-25.737 0.15000001 -0.155
-25.642 0.068999998 -0.154
-25.58 -0.011 -0.153
-25.493999 -0.090999998 -0.152
-25.410999 -0.17 -0.15099999
-25.334999 -0.249 -0.15000001
-25.264 -0.32800001 -0.149
-25.184999 -0.36700001 -0.148
-25.108 -0.44400001 -0.146
-25.028 -0.52100003 -0.145
-24.961 -0.59799999 -0.14399999
-24.868999 -0.67400002 -0.14300001
-24.805 -0.75 -0.142
-24.705999 -0.82499999 -0.141
-24.629 -0.861 -0.14
-24.549999 -0.93599999 -0.139
-24.466999 -1.0089999 -0.138
-24.41 -1.084 -0.13699999
-24.316 -1.156 -0.13600001
-24.250999 -1.229 -0.13500001
-24.153 -1.3 -0.133
-24.111 -1.336 -0.133
-24.007 -1.406 -0.132
-23.941999 -1.477 -0.131
-23.851999 -1.5470001 -0.12899999
-23.795 -1.618 -0.12899999
-23.690001 -1.686 -0.127
-23.527 -1.823 -0.125
-23.476999 -1.8559999 -0.125
-23.395 -1.923 -0.123
-23.325001 -1.9910001 -0.123
-23.235001 -2.0569999 -0.121
-23.169001 -2.1240001 -0.121
-23.09 -2.1900001 -0.12
-23.004 -2.2550001 -0.118
-22.948 -2.286 -0.118
-22.851999 -2.349 -0.116
-22.778999 -2.4130001 -0.116
-22.709 -2.4779999 -0.115
-22.622 -2.54 -0.114
-22.558001 -2.605 -0.113
-22.466 -2.6659999 -0.112
-22.400999 -2.694 -0.111
-22.315001 -2.7539999 -0.11
-22.261999 -2.819 -0.109
-22.162001 -2.8770001 -0.108
-22.107 -2.9400001 -0.107
-22.021 -2.9990001 -0.106
-21.941999 -3.059 -0.105
-21.872 -3.0840001 -0.104
-21.799 -3.1429999 -0.103
-21.714001 -3.201 -0.102
-21.648001 -3.26 -0.101
-21.551001 -3.3150001 -0.1
-21.487 -3.3740001 -0.098999999
-21.403 -3.4300001 -0.097999997
-21.35 -3.4560001 -0.097999997
-21.264 -3.51 -0.097000003
-21.205999 -3.569 -0.096000001
-21.124001 -3.6229999 -0.094999999
-21.056999 -3.6800001 -0.093999997
-20.973 -3.733 -0.093000002
-20.902 -3.7880001 -0.092
-20.811001 -3.806 -0.090999998
-20.752001 -3.862 -0.090000004
-20.716 -3.9230001 -0.090000004
-20.77 -4.0009999 -0.090999998
-20.862 -4.086 -0.092
-20.802 -4.1430001 -0.092
-20.724001 -4.1950002 -0.090999998
-20.643 -4.2119999 -0.090000004
-20.584999 -4.2670002 -0.089000002
-20.52 -4.3210001 -0.088
-20.424 -4.368 -0.086999997
-20.341999 -4.4169998 -0.086000003
-20.274 -4.4689999 -0.085000001
-20.201 -4.52 -0.085000001
-20.115999 -4.5339999 -0.082999997
-20.059 -4.5869999 -0.082999997
-19.976 -4.6339998 -0.082000002
-19.740999 -4.645 -0.079000004
-19.497 -4.652 -0.075000003
-19.43 -4.6999998 -0.075000003
-19.361 -4.7480001 -0.074000001
-19.285 -4.7610002 -0.072999999
-19.214001 -4.8080001 -0.071999997
-16.344 -4.1399999 -0.030999999
-16.309999 -4.1859999 -0.029999999
-16.295 -4.237 -0.029999999
-18.854 -5.033 -0.068000004
-18.785999 -5.0780001 -0.067000002
-18.728001 -5.0939999 -0.066
-18.643 -5.1339998 -0.064999998
-18.582001 -5.1799998 -0.064999998
-18.511999 -5.223 -0.064000003
-18.445 -5.2670002 -0.063000001
-18.356001 -5.303 -0.061999999
-13.141 -3.8340001 0.014
-13.066 -3.8340001 0.015
-13.025 -3.8659999 0.015
-13.003 -3.904 0.015
-12.97 -3.9389999 0.016000001
-12.969 -3.983 0.015
-12.934 -4.0170002 0.016000001
-12.929 -4.0599999 0.016000001
-12.922 -4.0799999 0.016000001
-12.926 -4.1259999 0.015
-12.951 -4.1789999 0.015
-12.976 -4.2319999 0.014
-13.062 -4.3060002 0.013
-17.415001 -5.8109999 -0.052000001
-17.351 -5.8499999 -0.050999999
-17.291 -5.8600001 -0.050000001
-17.223 -5.8969998 -0.050000001
-17.163 -5.9369998 -0.048999999
-17.097 -5.974 -0.048
-17.028999 -6.0100002 -0.048
-16.961 -6.046 -0.046999998
-16.896999 -6.0830002 -0.046
-16.837999 -6.092 -0.045000002
-16.774 -6.1279998 -0.045000002
-16.704 -6.1620002 -0.044
-16.636 -6.1960001 -0.043000001
-16.57 -6.2309999 -0.043000001
-16.507 -6.2670002 -0.041999999
-16.438999 -6.3000002 -0.041000001
-16.378 -6.3060002 -0.039999999
-16.319 -6.342 -0.039999999
-16.247 -6.3730001 -0.039000001
-16.184999 -6.4070001 -0.037999999
-16.120001 -6.4400001 -0.037999999
-16.056999 -6.473 -0.037
-15.992 -6.506 -0.035999998
-15.934 -6.5110002 -0.035999998
-15.865 -6.5409999 -0.035
-15.806 -6.5749998 -0.034000002
-15.743 -6.6069999 -0.034000002
-15.681 -6.6389999 -0.033
-15.618 -6.6700001 -0.032000002
-15.555 -6.7010002 -0.032000002
-15.492 -6.7309999 -0.030999999
-15.441 -6.7379999 -0.030999999
-15.379 -6.7680001 -0.029999999
-15.319 -6.8000002 -0.028999999
-15.26 -6.8299999 -0.028999999
-15.193 -6.8579998 -0.028000001
-15.127 -6.8850002 -0.027000001
-15.069 -6.9159999 -0.027000001
-15.011 -6.9180002 -0.026000001
-14.966 -6.954 -0.026000001
-14.886 -6.974 -0.025
-14.841 -7.0089998 -0.024
-14.772 -7.0339999 -0.024
-14.717 -7.0640001 -0.023
-14.664 -7.0960002 -0.023
-14.61 -7.098 -0.022
-14.544 -7.1220002 -0.021
-14.481 -7.1479998 -0.021
-14.421 -7.1739998 -0.02
-14.361 -7.2010002 -0.02
-14.308 -7.23 -0.018999999
-14.246 -7.2550001 -0.018999999
-14.197 -7.2579999 -0.017999999
-14.138 -7.2849998 -0.017000001
-14.085 -7.3130002 -0.017000001
-14.025 -7.3379998 -0.016000001
-13.968 -7.3639998 -0.016000001
-13.906 -7.3870001 -0.015
-13.85 -7.4130001 -0.015
-13.797 -7.4130001 -0.014
-13.739 -7.4369998 -0.013
-13.693 -7.4679999 -0.013
-13.638 -7.493 -0.013
-13.579 -7.5170002 -0.012
-13.51 -7.5339999 -0.011
-13.464 -7.5640001 -0.011
-13.412 -7.5619998 -0.0099999998
-13.357 -7.586 -0.0099999998
-13.305 -7.612 -0.0089999996
-13.245 -7.6329999 -0.0089999996
-13.184 -7.6539998 -0.0080000004
-13.127 -7.6760001 -0.0080000004
-13.048 -7.684 -0.0070000002
-13.014 -7.6919999 -0.0060000001
-12.863 -7.6560001 -0.0040000002
-12.893 -7.73 -0.0049999999
-12.865 -7.7680001 -0.0049999999
-12.812 -7.7909999 -0.0049999999
-12.755 -7.8109999 -0.0040000002
-12.707 -7.8369999 -0.0040000002
-12.705 -7.8629999 -0.0040000002
-4.8930001 -9.5489998 -0.78500003
-9.8970003 -6.2049999 0.041999999
-12.52 -7.9130001 -0.0020000001
-12.505 -7.9580002 -0.0020000001
-12.5 -8.0109997 -0.003
-12.48 -8.0530005 -0.003
-12.488 -8.0860004 -0.003
-12.471 -8.1300001 -0.003
-12.465 -8.1829996 -0.003
-12.451 -8.2299995 -0.0040000002
-12.44 -8.2790003 -0.0040000002
-12.43 -8.3290005 -0.0040000002
-12.414 -8.375 -0.0040000002
-12.414 -8.4029999 -0.0049999999
-12.401 -8.4510002 -0.0049999999
-12.386 -8.4980001 -0.0049999999
-12.349 -8.5299997 -0.0049999999
-12.304 -8.5559998 -0.0049999999
-12.318 -8.6230001 -0.0049999999
-12.371 -8.7189999 -0.0070000002
-12.323 -8.7139997 -0.0060000001
-12.273 -8.7360001 -0.0060000001
-12.231 -8.7639999 -0.0049999999
-11.895 -8.8380003 -0.0020000001
-11.841 -8.8559999 -0.0020000001
-11.791 -8.8760004 -0.001
-11.728 -8.8870001 -0.001
-11.688 -8.9139996 -0.0
-11.631 -8.9289999 0.0
-11.582 -8.9200001 0.001
-11.551 -8.9540005 0.001
-11.507 -8.9779997 0.001
-11.455 -8.9949999 0.001
-11.407 -9.0150003 0.0020000001
-10.636 -8.4580002 0.015
-10.594 -8.4790001 0.015
-10.542 -8.4919996 0.016000001
-10.502 -8.4870005 0.016000001
-10.465 -8.5109997 0.016000001
-10.421 -8.5299997 0.017000001
-10.363 -8.5369997 0.017000001
-10.315 -8.552 0.017999999
-10.268 -8.5679998 0.017999999
-10.218 -8.5810003 0.018999999
-10.194 -8.5880003 0.018999999
-10.144 -8.6000004 0.018999999
-10.087 -8.6059999 0.02
-10.05 -8.6300001 0.02
-9.9989996 -8.6400003 0.02
-9.9569998 -8.658 0.021
-9.9090004 -8.6709995 0.021
-9.8809996 -8.6750002 0.021
-9.8290005 -8.6829996 0.022
-9.783 -8.698 0.022
-9.7349997 -8.71 0.022
-9.6929998 -8.7270002 0.023
-9.6400003 -8.7349997 0.023
-9.6070004 -8.7320004 0.024
-9.5620003 -8.7460003 0.024
-9.5170002 -8.7600002 0.024
-9.4659996 -8.7679996 0.025
-9.4209995 -8.7810001 0.025
-9.3830004 -8.8009996 0.025
-9.335 -8.8120003 0.026000001
-9.3009996 -8.8070002 0.026000001
-9.257 -8.8210001 0.026000001
-9.2119999 -8.8330002 0.027000001
-9.1689997 -8.8470001 0.027000001
-9.1239996 -8.8590002 0.027000001
-9.0830002 -8.875 0.028000001
-9.0310001 -8.8789997 0.028000001
-8.9919996 -8.8970003 0.028000001
-8.9560003 -8.8889999 0.028999999
-8.9189997 -8.908 0.028999999
-8.8719997 -8.9169998 0.028999999
-8.8269997 -8.9280005 0.029999999
-8.7810001 -8.9370003 0.029999999
-8.7379999 -8.9490004 0.029999999
-8.6999998 -8.9659996 0.029999999
-8.6700001 -8.9639997 0.030999999
-8.6260004 -8.974 0.030999999
-8.5749998 -8.9779997 0.032000002
-8.5310001 -8.9870005 0.032000002
-8.4870005 -8.9980001 0.032000002
-8.4469995 -9.0109997 0.032000002
-8.4049997 -9.0229998 0.033
-8.382 -9.0270004 0.033
-8.3339996 -9.0319996 0.033
-8.2939997 -9.0459995 0.034000002
-8.25 -9.0539999 0.034000002
-8.2080002 -9.0649996 0.034000002
-8.1669998 -9.0780001 0.034000002
-8.1260004 -9.0880003 0.035
-8.0950003 -9.0830002 0.035
-8.0500002 -9.0889997 0.035
-8.0129995 -9.1049995 0.035999998
-7.967 -9.1110001 0.035999998
-7.9320002 -9.1280003 0.035999998
-7.888 -9.1350002 0.035999998
-7.849 -9.1470003 0.037
-7.8189998 -9.1409998 0.037
-7.7800002 -9.1540003 0.037
-7.744 -9.1700001 0.037
-7.698 -9.1730003 0.037999999
-7.652 -9.177 0.037999999
-7.6110001 -9.1859999 0.037999999
-7.5700002 -9.1960001 0.039000001
-7.5419998 -9.191 0.039000001
-7.5040002 -9.2040005 0.039000001
-7.4629998 -9.2119999 0.039000001
-7.4250002 -9.224 0.039999999
-7.381 -9.2290001 0.039999999
-7.3400002 -9.2360001 0.039999999
-7.2979999 -9.243 0.039999999
-7.2729998 -9.2410002 0.041000001
-7.2309999 -9.2480001 0.041000001
-7.198 -9.2650003 0.041000001
-7.152 -9.2659998 0.041000001
-7.112 -9.2740002 0.041999999
-7.073 -9.2840004 0.041999999
-7.0310001 -9.2880001 0.041999999
-7.0089998 -9.29 0.041999999
-6.9699998 -9.2989998 0.043000001
-6.9299998 -9.3059998 0.043000001
-6.8889999 -9.3120003 0.043000001
-6.848 -9.3170004 0.043000001
-6.8130002 -9.3310003 0.044
-6.7729998 -9.3369999 0.044
-6.744 -9.3280001 0.044
-6.7020001 -9.3319998 0.045000002
-6.665 -9.3409996 0.045000002
-6.6259999 -9.349 0.045000002
-6.5890002 -9.3579998 0.045000002
-6.5500002 -9.3660002 0.045000002
-6.5170002 -9.382 0.045000002
-6.4920001 -9.3769999 0.046
-6.4530001 -9.382 0.046
-6.4120002 -9.3859997 0.046
-6.381 -9.4049997 0.046
-6.3369999 -9.4029999 0.046999998
-6.3049998 -9.4200001 0.046999998
-6.2670002 -9.4259996 0.046999998
-6.2389998 -9.4160004 0.046999998
-6.204 -9.427 0.046999998
-6.1690001 -9.4379997 0.048
-6.1339998 -9.4490004 0.048
-6.0910001 -9.448 0.048
-6.0599999 -9.4650002 0.048
-6.0120001 -9.4560003 0.048999999
-5.974 -9.4610004 0.048999999
-5.9980001 -9.533 0.048
-5.8940001 -9.4309998 0.050000001
-5.8509998 -9.4289999 0.050000001
-5.757 -9.342 0.052000001
-5.7979999 -9.4759998 0.050000001
-5.7659998 -9.4910002 0.050000001
-8.2950001 -7.3899999 -1.6390001
-8.2440004 -7.4380002 -1.638
-8.2370005 -7.4549999 -1.6390001
-8.2069998 -7.4759998 -1.638
-8.1850004 -7.5029998 -1.638
-8.1490002 -7.5170002 -1.635
-8.1210003 -7.5380001 -1.6339999
-5.5 -9.5179996 0.050999999
-8.0719995 -7.5879998 -1.6339999
-8.0539999 -7.5949998 -1.633
-8.0290003 -7.619 -1.632
-5.355 -9.5410004 0.052000001
-7.954 -7.6430001 -1.626
-7.9400001 -7.678 -1.6289999
-7.914 -7.7010002 -1.628
-7.8759999 -7.7119999 -1.625
-7.8530002 -7.7379999 -1.625
-7.835 -7.7449999 -1.624
-7.8119998 -7.7709999 -1.625
-7.7789998 -7.7870002 -1.623
-7.737 -7.7930002 -1.619
-7.7259998 -7.8319998 -1.622
-7.6960001 -7.8499999 -1.62
-7.6589999 -7.8610001 -1.618
-7.6420002 -7.869 -1.617
-7.6079998 -7.8829999 -1.614
-7.5890002 -7.9130001 -1.6160001
-7.566 -7.9390001 -1.6160001
-7.5469999 -7.9689999 -1.618
-7.5139999 -7.9840002 -1.6160001
-7.4850001 -8.0030003 -1.615
-7.4629998 -8.0050001 -1.613
-7.4349999 -8.0249996 -1.612
-7.4029999 -8.0410004 -1.61
-7.3800001 -8.0670004 -1.6109999
-7.3429999 -8.0769997 -1.608
-7.329 -8.1140003 -1.6109999
-7.3169999 -8.125 -1.6109999
-7.2880001 -8.1450005 -1.61
-7.256 -8.1610003 -1.609
-7.2309999 -8.1829996 -1.609
-7.1929998 -8.1929998 -1.6059999
-7.1700001 -8.2180004 -1.607
-7.1399999 -8.2360001 -1.6059999
-7.1199999 -8.2379999 -1.604
-7.0830002 -8.2489996 -1.601
-7.0539999 -8.2659998 -1.6
-7.0170002 -8.2770004 -1.598
-6.9850001 -8.2910004 -1.596
-6.954 -8.3070002 -1.595
-6.9330001 -8.335 -1.596
-6.9130001 -8.3640003 -1.598
-6.8930001 -8.3669996 -1.596
-6.8629999 -8.3839998 -1.595
-6.8330002 -8.401 -1.594
-6.8060002 -8.4209995 -1.594
-6.7750001 -8.4379997 -1.5930001
-6.7459998 -8.4560003 -1.5930001
-6.723 -8.4820004 -1.5930001
-6.6950002 -8.474 -1.59
-6.664 -8.4879999 -1.5880001
-4.7020001 -9.7379999 -1.0
-6.6149998 -8.5360003 -1.59
-6.579 -8.5450001 -1.587
-6.552 -8.5649996 -1.587
-6.5240002 -8.5839996 -1.587
-6.5149999 -8.6009998 -1.5880001
-6.4840002 -8.6160002 -1.587
-6.4549999 -8.6339998 -1.587
-6.4239998 -8.6490002 -1.586
-6.3969998 -8.6689997 -1.586
-6.3649998 -8.6829996 -1.584
-6.3400002 -8.7060003 -1.585
-6.3249998 -8.7139997 -1.585
-6.3010001 -8.7390003 -1.586
-6.2670002 -8.7489996 -1.584
-6.2420001 -8.7720003 -1.584
-6.2119999 -8.7880001 -1.584
-6.184 -8.8079996 -1.584
-6.1609998 -8.8339996 -1.585
-6.1409998 -8.8339996 -1.5829999
-6.112 -8.8509998 -1.5829999
-6.0830002 -8.8690004 -1.582
-6.0549998 -8.8879995 -1.582
-6.0320001 -8.915 -1.584
-6.0170002 -8.9540005 -1.5880001
-5.994 -8.9790001 -1.589
-5.973 -8.9790001 -1.587
-5.9530001 -9.0100002 -1.59
-5.9190001 -9.0190001 -1.5880001
-5.901 -9.0539999 -1.591
-5.8610001 -9.0550003 -1.587
-5.8319998 -9.073 -1.587
-5.8060002 -9.0939999 -1.5880001
-5.7940001 -9.1070004 -1.589
-5.763 -9.1219997 -1.5880001
-5.7309999 -9.1350002 -1.587
-5.6929998 -9.1379995 -1.584
-5.6589999 -9.1470003 -1.5829999
-5.631 -9.1660004 -1.5829999
-5.5999999 -9.1789999 -1.582
-5.5879998 -9.1929998 -1.5829999
-5.5570002 -9.2069998 -1.582
-5.5170002 -9.2060003 -1.579
-5.4910002 -9.2279997 -1.58
-5.4650002 -9.25 -1.581
-5.434 -9.2639999 -1.58
-5.408 -9.2860003 -1.581
-5.3909998 -9.2910004 -1.581
-5.3629999 -9.3100004 -1.581
-5.3369999 -9.3319998 -1.582
-5.296 -9.3280001 -1.5779999
-5.2680001 -9.3479996 -1.579
-5.25 -9.3839998 -1.582
-5.2259998 -9.4099998 -1.584
-5.2020001 -9.4029999 -1.581
-5.1750002 -9.4230003 -1.582
-5.1479998 -9.4440002 -1.5829999
-5.131 -9.4849997 -1.587
-5.0949998 -9.4890003 -1.585
-5.0689998 -9.5120001 -1.586
-5.04 -9.5290003 -1.587
-5.026 -9.5389996 -1.587
-4.9920001 -9.5480003 -1.586
-4.9629998 -9.5649996 -1.586
-4.9250002 -9.5649996 -1.5829999
-4.8909998 -9.573 -1.582
-4.8629999 -9.592 -1.582
-4.8400002 -9.6210003 -1.585
-4.8210001 -9.6590004 -1.589
-4.8049998 -9.665 -1.589
-4.7750001 -9.6800003 -1.589
-4.744 -9.6949997 -1.589
-4.7059999 -9.6940002 -1.586
-4.6700001 -9.6960001 -1.584
-4.6440001 -9.7220001 -1.586
-4.619 -9.7489996 -1.5880001
-4.6430001 -9.8380003 -1.602
-4.6389999 -9.9119997 -1.613
-4.8400002 -9.5930004 -0.787
-4.5710001 -9.9280005 -1.61
-4.5409999 -9.9440002 -1.6109999
-4.5149999 -9.9709997 -1.613
-4.5040002 -9.9890003 -1.615
-4.4790001 -10.018 -1.617
-4.4429998 -10.021 -1.615
-4.4200001 -10.053 -1.619
-4.3870001 -10.065 -1.618
-4.3569999 -10.082 -1.619
-4.329 -10.105 -1.62
-4.316 -10.119 -1.622
-4.7729998 -10.129 -1.0420001
-4.2610002 -10.166 -1.625
-4.2340002 -10.19 -1.627
