# .PCD v0.7 - Point Cloud Data file format
VERSION 0.7
FIELDS x y z intensity
SIZE 4 4 4 4
TYPE F F F F
COUNT 1 1 1 1
WIDTH 1451
HEIGHT 1
VIEWPOINT 0 0 0 1 0 0 0
POINTS 1451
DATA ascii
-5.6690001 1.105 -1.847 0.090000004
-5.678 1.089 -1.848 0.090000004
-5.6810002 1.071 -1.848 0.079999998
-5.6789999 1.061 -1.847 0.16
-5.6680002 1.04 -1.842 0.039999999
-5.6859999 1.025 -1.847 0.07
-5.6739998 1.005 -1.842 0.090000004
-5.6869998 0.98900002 -1.845 0.039999999
-5.6950002 0.972 -1.847 0.07
-5.6950002 0.96200001 -1.847 0.15000001
-5.6960001 0.94400001 -1.846 0.039999999
-5.7030001 0.92699999 -1.847 0.07
-5.7069998 0.90899998 -1.848 0.079999998
-5.7160001 0.89200002 -1.85 0.15000001
-5.7129998 0.87300003 -1.848 0.039999999
-5.7249999 0.85699999 -1.851 0.07
-5.7030001 0.83499998 -1.8430001 0.15000001
-5.7270002 0.82999998 -1.85 0.16
-5.7199998 0.81 -1.847 0.039999999
-5.7210002 0.792 -1.847 0.07
-5.7309999 0.77499998 -1.849 0.15000001
-5.7179999 0.755 -1.844 0.039999999
-5.73 0.73799998 -1.847 0.07
-5.7340002 0.72100002 -1.848 0.039999999
-5.743 0.713 -1.85 0.07
-5.7280002 0.69199997 -1.845 0.039999999
-5.744 0.676 -1.849 0.07
-5.7360001 0.65700001 -1.846 0.039999999
-5.7309999 0.63800001 -1.8430001 0.029999999
-5.7480001 0.62199998 -1.848 0.039999999
-5.7459998 0.60299999 -1.847 0.039999999
-5.7600002 0.59600002 -1.852 0.07
-5.7579999 0.57700002 -1.85 0.039999999
-5.737 0.55699998 -1.8430001 0.039999999
-5.7600002 0.54100001 -1.85 0.079999998
-5.756 0.52200001 -1.848 0.14
-5.7610002 0.50400001 -1.849 0.039999999
-5.7729998 0.49599999 -1.853 0.07
-5.7649999 0.477 -1.85 0.039999999
-5.763 0.45899999 -1.848 0.079999998
-5.7589998 0.44 -1.847 0.039999999
-5.7600002 0.42199999 -1.847 0.07
-5.7690001 0.405 -1.849 0.039999999
-5.7670002 0.38600001 -1.848 0.029999999
-5.7709999 0.37799999 -1.849 0.039999999
-5.7740002 0.36000001 -1.85 0.07
-5.7750001 0.34099999 -1.85 0.039999999
-5.7839999 0.324 -1.852 0.07
-5.7729998 0.30500001 -1.848 0.039999999
-5.789 0.28799999 -1.854 0.07
-5.7810001 0.26899999 -1.85 0.039999999
-5.7849998 0.25999999 -1.852 0.07
-5.7909999 0.242 -1.854 0.039999999
-5.79 0.22400001 -1.853 0.079999998
-5.8140001 0.206 -1.8609999 0.07
-5.8119998 0.18799999 -1.86 0.039999999
-5.8150001 0.17 -1.8609999 0.07
-5.8099999 0.152 -1.859 0.039999999
-5.8119998 0.142 -1.859 0
-5.8140001 0.124 -1.86 0.059999999
-5.822 0.106 -1.863 0.039999999
-5.822 0.088 -1.863 0.07
-5.8109999 0.068999998 -1.859 0.039999999
-5.8189998 0.050999999 -1.8609999 0.07
-5.823 0.033 -1.863 0.039999999
-5.8210001 0.024 -1.862 0.07
-5.8060002 0.0049999999 -1.857 0.039999999
-5.823 -0.013 -1.863 0.079999998
-5.8119998 -0.030999999 -1.859 0.039999999
-5.8169999 -0.048999999 -1.8609999 0.029999999
-5.8260002 -0.068000004 -1.864 0.07
-5.8169999 -0.086000003 -1.8609999 0.039999999
-5.8150001 -0.094999999 -1.86 0.07
-5.822 -0.113 -1.863 0.039999999
-5.8140001 -0.132 -1.86 0.07
-5.8169999 -0.15000001 -1.8609999 0.039999999
-5.822 -0.168 -1.863 0.029999999
-5.816 -0.186 -1.8609999 0.039999999
-5.8189998 -0.205 -1.863 0.07
-5.8169999 -0.214 -1.862 0.039999999
-5.8340001 -0.233 -1.868 0.07
-5.8099999 -0.25 -1.86 0.039999999
-5.8239999 -0.26899999 -1.865 0.07
-5.8140001 -0.287 -1.862 0.039999999
-5.8299999 -0.30599999 -1.868 0.07
-5.8119998 -0.32300001 -1.862 0.039999999
-5.8080001 -0.33199999 -1.8609999 0.039999999
-5.8280001 -0.352 -1.868 0.07
-5.802 -0.36899999 -1.859 0.039999999
-5.8119998 -0.38800001 -1.863 0.079999998
-5.796 -0.405 -1.858 0.039999999
-5.802 -0.42399999 -1.8609999 0.039999999
-5.8060002 -0.442 -1.863 0.07
-5.8039999 -0.45100001 -1.862 0.039999999
-5.8000002 -0.46900001 -1.8609999 0.07
-5.8080001 -0.48800001 -1.865 0.039999999
-5.8049998 -0.50599998 -1.864 0.07
-5.8049998 -0.52499998 -1.865 0.079999998
-5.7979999 -0.542 -1.863 0.039999999
-5.796 -0.56099999 -1.863 0.039999999
-5.8010001 -0.56999999 -1.865 0.07
-5.803 -0.58899999 -1.8660001 0.039999999
-5.803 -0.60699999 -1.8660001 0.07
-5.789 -0.62400001 -1.863 0.039999999
-5.7930002 -0.64300001 -1.865 0.029999999
-5.789 -0.66100001 -1.864 0.07
-5.789 -0.68000001 -1.865 0.079999998
-5.7919998 -0.68900001 -1.8660001 0.039999999
-5.7820001 -0.70599997 -1.863 0.07
-5.7849998 -0.72500002 -1.865 0.039999999
-5.7810001 -0.74299997 -1.865 0.039999999
-5.777 -0.76099998 -1.864 0.07
-5.7690001 -0.77899998 -1.862 0.039999999
-5.7810001 -0.78899997 -1.8660001 0.07
-5.7670002 -0.80599999 -1.863 0.14
-5.7610002 -0.824 -1.8609999 0.039999999
-5.7729998 -0.84399998 -1.8660001 0.07
-5.7550001 -0.86000001 -1.8609999 0.039999999
-5.756 -0.87800002 -1.863 0.07
-5.7690001 -0.89899999 -1.868 0.15000001
-5.7540002 -0.90600002 -1.863 0.039999999
-5.7509999 -0.92400002 -1.863 0.07
-5.7459998 -0.94199997 -1.863 0.039999999
-5.7449999 -0.95999998 -1.863 0.07
-5.75 -0.97899997 -1.8660001 0.039999999
-5.7480001 -0.99800003 -1.8660001 0.07
-5.7319999 -1.013 -1.862 0.039999999
-5.7470002 -1.025 -1.868 0.07
-5.724 -1.04 -1.8609999 0.039999999
-5.7329998 -1.0599999 -1.865 0.07
-5.7259998 -1.077 -1.864 0.079999998
-5.7249999 -1.096 -1.865 0.039999999
-5.723 -1.114 -1.865 0.07
-5.7179999 -1.132 -1.865 0.16
-5.7249999 -1.142 -1.868 0.039999999
-5.7290001 -1.1619999 -1.87 0.079999998
-5.7090001 -1.177 -1.865 0.039999999
-5.7049999 -1.194 -1.865 0.07
-5.6919999 -1.21 -1.8609999 0.039999999
-5.697 -1.23 -1.865 0.07
-5.6919999 -1.248 -1.864 0.039999999
-5.684 -1.256 -1.862 0.07
-5.678 -1.273 -1.8609999 0.039999999
-5.6820002 -1.2920001 -1.864 0.07
-5.6659999 -1.308 -1.86 0.039999999
-5.677 -1.329 -1.865 0.07
-5.6669998 -1.346 -1.863 0.14
-5.6609998 -1.363 -1.863 0.17
-5.6459999 -1.369 -1.858 0.16
-5.6620002 -1.391 -1.865 0.25999999
-5.6469998 -1.406 -1.8609999 0.17
-5.6459999 -1.425 -1.863 0.23
-5.645 -1.444 -1.864 0.1
-5.6370001 -1.46 -1.863 0
-5.6290002 -1.477 -1.8609999 0
-5.6149998 -1.483 -1.857 0
-5.625 -1.505 -1.863 0
-5.631 -1.525 -1.8660001 0
-5.619 -1.541 -1.864 0
-5.4920001 -1.9809999 -1.868 0
-5.473 -1.994 -1.863 0
-5.4629998 -2.01 -1.862 0
-5.4660001 -2.03 -1.865 0
-5.4569998 -2.0369999 -1.863 0
-5.4629998 -2.0580001 -1.868 0
-5.448 -2.072 -1.865 0
-5.4380002 -2.0880001 -1.863 0
-5.4349999 -2.1059999 -1.865 0
-5.4299998 -2.1240001 -1.865 0
-5.4200001 -2.1400001 -1.864 0
-5.4130001 -2.1470001 -1.863 0
-5.4109998 -2.1659999 -1.865 0
-5.4039998 -2.1830001 -1.865 0
-5.401 -2.201 -1.8660001 0
-5.3850002 -2.2149999 -1.863 0
-5.3850002 -2.2349999 -1.865 0
-5.3839998 -2.2539999 -1.867 0
-5.3730001 -2.2590001 -1.865 0
-5.3610001 -2.2739999 -1.863 0
-5.3520002 -2.29 -1.862 0
-5.3499999 -2.309 -1.864 0
-5.3390002 -2.3239999 -1.863 0
-5.3299999 -2.3399999 -1.862 0
-5.3260002 -2.359 -1.863 0
-5.329 -2.3699999 -1.8660001 0
-5.3150001 -2.3840001 -1.863 0
-5.3109999 -2.402 -1.865 0
-5.296 -2.415 -1.862 0
-5.2940001 -2.434 -1.864 0
-5.2880001 -2.4519999 -1.865 0
-5.2719998 -2.464 -1.8609999 0
-5.2709999 -2.474 -1.863 0
-5.2839999 -2.5 -1.87 0
-5.276 -2.517 -1.87 0
-5.277 -2.5380001 -1.874 0
-5.2379999 -2.54 -1.862 0
-5.2540002 -2.5680001 -1.8710001 0
-5.244 -2.5829999 -1.87 0
-5.237 -2.5899999 -1.869 0
-5.2030001 -2.5940001 -1.859 0
-5.198 -2.612 -1.8609999 0
-5.1900001 -2.628 -1.8609999 0
-5.2049999 -2.6559999 -1.87 0
-5.1999998 -2.674 -1.8710001 0
-5.1599998 -2.674 -1.859 0
-5.184 -2.697 -1.87 0
-5.1570001 -2.704 -1.863 0
-5.145 -2.7179999 -1.8609999 0
-5.132 -2.7320001 -1.859 0
-5.1329999 -2.753 -1.863 0
-5.1129999 -2.763 -1.859 0
-5.112 -2.773 -1.86 0
-5.105 -2.79 -1.8609999 0
-5.0960002 -2.806 -1.8609999 0
-5.0869999 -2.822 -1.8609999 0
-5.073 -2.835 -1.859 0
-5.066 -2.852 -1.859 0
-5.059 -2.869 -1.86 0
-5.0619998 -2.881 -1.863 0
-5.0479999 -2.8940001 -1.8609999 0
-5.039 -2.9100001 -1.8609999 0
-5.0580001 -2.9419999 -1.872 0
-5.0209999 -2.9419999 -1.8609999 0
-5.0359998 -2.9719999 -1.8710001 0
-5.0300002 -2.99 -1.872 0
-4.9980001 -2.9809999 -1.8609999 0
-5.013 -3.0109999 -1.8710001 0
-4.9770002 -3.0109999 -1.8609999 0
-4.9759998 -3.0320001 -1.864 0
-4.9549999 -3.0409999 -1.859 0
-4.9699998 -3.0710001 -1.869 0
-4.9549999 -3.0840001 -1.867 0
-4.934 -3.082 -1.8609999 0
-4.947 -3.1110001 -1.87 0
-4.934 -3.125 -1.868 0
-4.9239998 -3.1400001 -1.868 0
-4.9190001 -3.158 -1.87 0
-4.888 -3.161 -1.862 0
-4.9070001 -3.194 -1.874 0
-4.8959999 -3.198 -1.8710001 0
-4.8569999 -3.1949999 -1.859 0
-4.8499999 -3.2119999 -1.8609999 0
-4.8649998 -3.244 -1.8710001 0
-4.8330002 -3.2449999 -1.862 0
-4.8239999 -3.2609999 -1.863 0
-4.8330002 -3.289 -1.87 0
-4.829 -3.2969999 -1.8710001 0
-4.8189998 -3.313 -1.8710001 0
-4.7849998 -3.312 -1.8609999 0
-4.7719998 -3.3239999 -1.86 0
-4.7919998 -3.3610001 -1.873 0
-4.7680001 -3.3659999 -1.867 0
-4.7399998 -3.369 -1.86 0
-4.7670002 -3.4000001 -1.874 0
-4.75 -3.4100001 -1.8710001 0
-4.75 -3.4330001 -1.876 0
-4.7329998 -3.4430001 -1.873 0
-4.7160001 -3.454 -1.87 0
-4.7119999 -3.473 -1.873 0
-4.7020001 -3.477 -1.8710001 0
-4.6859999 -3.4879999 -1.869 0
-4.6810002 -3.5079999 -1.872 0
-4.6700001 -3.5220001 -1.872 0
-4.665 -3.5420001 -1.874 0
-4.6370001 -3.5439999 -1.867 0
-4.6370001 -3.566 -1.872 0
-4.6360002 -3.5769999 -1.874 0
-4.6230001 -3.5899999 -1.873 0
-4.6009998 -3.5969999 -1.868 0
-4.579 -3.6029999 -1.864 0
-4.5960002 -3.6400001 -1.876 0
-4.54 -3.619 -1.857 0
-4.5609999 -3.6589999 -1.8710001 0
-4.553 -3.664 -1.87 0
-4.526 -3.6659999 -1.863 0
-4.5279999 -3.691 -1.869 0
-4.5219998 -3.71 -1.872 0
-4.5019999 -3.717 -1.868 0
-4.4790001 -3.7219999 -1.863 0
-4.4889998 -3.7539999 -1.872 0
-4.4679999 -3.7490001 -1.8660001 0
-4.461 -3.766 -1.868 0
-4.4369998 -3.7709999 -1.863 0
-4.4200001 -3.78 -1.86 0
-4.3990002 -3.786 -1.8559999 0.029999999
-4.4000001 -3.8110001 -1.862 0.029999999
-4.3800001 -3.8169999 -1.858 0.029999999
-4.3779998 -3.8280001 -1.86 0.029999999
-4.3670001 -3.8429999 -1.8609999 0.029999999
-4.355 -3.8570001 -1.8609999 0.029999999
-4.3319998 -3.8599999 -1.8559999 0.029999999
-4.3280001 -3.881 -1.859 0.029999999
-4.3210001 -3.9000001 -1.862 0
-4.3060002 -3.911 -1.8609999 0
-4.309 -3.925 -1.865 0
-4.2839999 -3.928 -1.859 0
-4.2810001 -3.95 -1.863 0
-4.2740002 -3.9679999 -1.8660001 0.059999999
-4.2589998 -3.9790001 -1.865 0.039999999
-4.237 -3.984 -1.86 0.07
-4.2259998 -3.9979999 -1.8609999 0.039999999
-4.2210002 -4.006 -1.8609999 0.029999999
-4.2049999 -4.0170002 -1.86 0.07
-4.191 -4.0289998 -1.859 0.039999999
-4.1859999 -4.0479999 -1.863 0.039999999
-4.1620002 -4.0510001 -1.857 0.07
-4.152 -4.0669999 -1.859 0.039999999
-4.1469998 -4.0879998 -1.863 0.07
-4.1339998 -4.0869999 -1.859 0.039999999
-4.1269999 -4.1059999 -1.862 0.039999999
-4.112 -4.1170001 -1.8609999 0.07
-4.0939999 -4.125 -1.859 0.039999999
-4.0900002 -4.1469998 -1.863 0.07
-4.0689998 -4.152 -1.859 0.039999999
-4.0669999 -4.1620002 -1.8609999 0.14
-4.0500002 -4.171 -1.859 0.050000001
-4.033 -4.1799998 -1.857 0.17
-4.0219998 -4.1950002 -1.859 0.050000001
-4.0100002 -4.2090001 -1.859 0.16
-3.9890001 -4.2129998 -1.8559999 0.050000001
-3.9860001 -4.237 -1.8609999 0.16
-3.973 -4.2360001 -1.857 0.050000001
-3.964 -4.2529998 -1.859 0.17
-3.9489999 -4.2639999 -1.859 0.050000001
-3.927 -4.2670002 -1.854 0.16
-3.9260001 -4.2930002 -1.8609999 0.050000001
-3.9200001 -4.3140001 -1.865 0.18000001
-3.891 -4.309 -1.857 0.050000001
-3.8929999 -4.3249998 -1.8609999 0.17
-3.8759999 -4.3330002 -1.859 0.050000001
-3.869 -4.3520002 -1.863 0.16
-3.849 -4.3569999 -1.859 0.050000001
-3.8529999 -4.3889999 -1.868 0.16
-3.8310001 -4.3930001 -1.865 0.050000001
-3.825 -4.4130001 -1.868 0.16
-3.812 -4.4120002 -1.865 0.19
-3.7939999 -4.4200001 -1.863 0.18000001
-3.7839999 -4.4359999 -1.865 0.039999999
-3.7709999 -4.4489999 -1.8660001 0.15000001
-3.7609999 -4.4650002 -1.868 0.2
-3.7420001 -4.4710002 -1.865 0.16
-3.723 -4.4770002 -1.863 0.23
-3.711 -4.4770002 -1.86 0.19
-3.6960001 -4.4879999 -1.859 0.12
-3.665 -4.4790001 -1.85 0.19
-3.645 -4.4829998 -1.847 0.11
-3.6199999 -4.4809999 -1.841 0.18000001
-3.6029999 -4.4899998 -1.84 0.11
-3.5829999 -4.493 -1.837 0.18000001
-3.5739999 -4.4959998 -1.836 0.11
-3.5439999 -4.4879999 -1.827 0.18000001
-3.5190001 -4.4840002 -1.821 0.11
-3.51 -4.5029998 -1.824 0.18000001
-3.4909999 -4.5079999 -1.821 0.12
-3.471 -4.5110002 -1.818 0.18000001
-3.45 -4.4990001 -1.8099999 0.23
-3.437 -4.5110002 -1.811 0.18000001
-3.4159999 -4.513 -1.807 0.23
-3.398 -4.5180001 -1.8049999 0.19
-3.381 -4.5250001 -1.803 0.11
-3.3540001 -4.5190001 -1.796 0.19
-3.3399999 -4.5300002 -1.796 0.11
-3.332 -4.533 -1.796 0.19
-3.3210001 -4.5479999 -1.798 0.11
-3.3069999 -4.559 -1.798 0.19
-3.2850001 -4.5580001 -1.793 0.11
-3.27 -4.5689998 -1.793 0.17
-3.247 -4.5669999 -1.788 0.050000001
-3.24 -4.5879998 -1.7920001 0.17
-3.2320001 -4.5910001 -1.7920001 0.20999999
-3.2130001 -4.5949998 -1.789 0.090000004
-3.188 -4.5900002 -1.783 0.18000001
-3.181 -4.6110001 -1.7869999 0.2
-3.168 -4.6220002 -1.788 0.090000004
-3.148 -4.6240001 -1.785 0.18000001
-3.141 -4.645 -1.789 0.11
-3.1240001 -4.6360002 -1.783 0.18000001
-3.109 -4.6459999 -1.783 0.11
-3.095 -4.6550002 -1.783 0.2
-3.0780001 -4.6620002 -1.7819999 0.25
-3.0639999 -4.6729999 -1.783 0.27000001
-3.0580001 -4.6950002 -1.788 0.28999999
-3.033 -4.6890001 -1.781 0.28999999
-3.023 -4.691 -1.78 0.31
-3.0150001 -4.71 -1.784 0.30000001
-2.997 -4.7140002 -1.7819999 0.28999999
-2.9890001 -4.7350001 -1.7869999 0.31
-2.9749999 -4.7459998 -1.7869999 0.31999999
-2.971 -4.7729998 -1.794 0.34
-2.9660001 -4.7969999 -1.8 0.28999999
-2.9489999 -4.7870002 -1.794 0.30000001
-2.9089999 -4.756 -1.778 0.25
-2.898 -4.7709999 -1.781 0.33000001
-2.885 -4.7839999 -1.7819999 0.33000001
-2.8770001 -4.8039999 -1.7869999 0.28999999
-2.875 -4.836 -1.796 0.33000001
-2.8599999 -4.8449998 -1.796 0.30000001
-2.852 -4.848 -1.795 0.31
-2.832 -4.8499999 -1.7920001 0.28999999
-2.8069999 -4.8410001 -1.785 0.27000001
-2.7820001 -4.8330002 -1.779 0.30000001
-2.7590001 -4.829 -1.774 0.31999999
-2.7420001 -4.8340001 -1.772 0.28
-2.72 -4.8309999 -1.768 0.31999999
-2.7160001 -4.8410001 -1.77 0.34
-2.7090001 -4.8639998 -1.776 0.34999999
-2.701 -4.8860002 -1.781 0.31
-2.6900001 -4.9029999 -1.784 0.28999999
-2.6789999 -4.9190001 -1.7869999 0.30000001
-2.6600001 -4.921 -1.785 0.16
-2.658 -4.9349999 -1.789 0.28999999
-2.642 -4.9429998 -1.789 0.23
-2.618 -4.9349999 -1.7819999 0.16
-2.6070001 -4.9520001 -1.785 0.28999999
-2.5929999 -4.9629998 -1.7869999 0.25
-2.5799999 -4.9759998 -1.789 0.27000001
-2.5580001 -4.973 -1.784 0.25
-2.553 -4.9819999 -1.786 0.28
-2.5209999 -4.9580002 -1.774 0.28
-2.4960001 -4.947 -1.767 0.28
-2.4879999 -4.9699998 -1.772 0.33000001
-2.4679999 -4.9689999 -1.7690001 0.31999999
-2.4419999 -4.9569998 -1.761 0.28999999
-2.434 -4.98 -1.767 0.33000001
-2.4219999 -4.9749999 -1.7640001 0.28999999
-2.4100001 -4.9889998 -1.767 0.31
-2.395 -4.9990001 -1.767 0.28999999
-2.3789999 -5.006 -1.767 0.28999999
-2.3670001 -5.02 -1.77 0.30000001
-2.3599999 -5.0469999 -1.777 0.36000001
-2.335 -5.0349998 -1.77 0.30000001
-2.325 -5.0339999 -1.768 0.31999999
-2.316 -5.0549998 -1.773 0.31999999
-2.2920001 -5.0450001 -1.767 0.34
-2.27 -5.04 -1.762 0.30000001
-2.2579999 -5.0539999 -1.765 0.34
-2.233 -5.0419998 -1.758 0.30000001
-2.2260001 -5.0469999 -1.758 0.31999999
-2.2160001 -5.066 -1.763 0.34999999
-2.2030001 -5.0799999 -1.765 0.27000001
-2.191 -5.0970001 -1.7690001 0.34999999
-2.177 -5.1079998 -1.77 0.30000001
-2.1570001 -5.1059999 -1.767 0.31999999
-2.142 -5.1160002 -1.7690001 0.34999999
-2.128 -5.1059999 -1.763 0.31
-2.1070001 -5.0999999 -1.7589999 0.31999999
-2.0899999 -5.1030002 -1.758 0.30000001
-2.072 -5.1040001 -1.756 0.31
-2.0510001 -5.099 -1.751 0.28
-2.0350001 -5.105 -1.751 0.31
-2.02 -5.1149998 -1.752 0.33000001
-2.006 -5.1040001 -1.747 0.31
-1.987 -5.1030002 -1.745 0.30000001
-1.975 -5.118 -1.748 0.34
-1.951 -5.105 -1.7410001 0.28999999
-1.942 -5.1290002 -1.747 0.34999999
-1.928 -5.1399999 -1.749 0.30000001
-1.914 -5.152 -1.751 0.31999999
-1.9 -5.1389999 -1.745 0.28999999
-1.887 -5.1529999 -1.749 0.28
-1.872 -5.1630001 -1.75 0.28999999
-1.854 -5.165 -1.749 0.30000001
-1.83 -5.1500001 -1.7410001 0.33000001
-1.807 -5.1339998 -1.733 0.25999999
-1.794 -5.1500001 -1.737 0.36000001
-1.7819999 -5.1409998 -1.732 0.34
-1.772 -5.1659999 -1.74 0.34999999
-1.755 -5.1680002 -1.738 0.31999999
-1.734 -5.1589999 -1.733 0.31999999
-1.716 -5.1609998 -1.732 0.28999999
-1.701 -5.1700001 -1.733 0.34
-1.6849999 -5.1750002 -1.733 0.31999999
-1.678 -5.1810002 -1.734 0.30000001
-1.6569999 -5.1700001 -1.729 0.34
-1.646 -5.1919999 -1.734 0.30000001
-1.632 -5.2059999 -1.738 0.28999999
-1.6160001 -5.2129998 -1.738 0.31999999
-1.599 -5.2140002 -1.737 0.31999999
-1.587 -5.2059999 -1.733 0.30000001
-1.575 -5.223 -1.738 0.33000001
-1.554 -5.2140002 -1.732 0.34999999
-1.534 -5.2080002 -1.729 0.28999999
-1.523 -5.2309999 -1.735 0.31999999
-1.5039999 -5.2249999 -1.7309999 0.28999999
-1.4859999 -5.224 -1.729 0.31
-1.47 -5.2010002 -1.72 0.31999999
-1.462 -5.2329998 -1.73 0.31
-1.448 -5.2480001 -1.734 0.28
-1.431 -5.2490001 -1.732 0.22
-1.4220001 -5.283 -1.743 0.30000001
-1.406 -5.289 -1.743 0.23999999
-1.392 -5.303 -1.747 0.27000001
-1.3789999 -5.2880001 -1.7410001 0.27000001
-1.364 -5.2979999 -1.743 0.23
-1.337 -5.2639999 -1.729 0.23999999
-1.322 -5.2719998 -1.7309999 0.30000001
-1.301 -5.2589998 -1.725 0.31999999
-1.281 -5.2509999 -1.72 0.30000001
-1.267 -5.2620001 -1.723 0.34
-1.252 -5.2360001 -1.7130001 0.30000001
-1.2410001 -5.2659998 -1.722 0.34
-1.223 -5.2610002 -1.719 0.30000001
-1.21 -5.2789998 -1.724 0.28999999
-1.201 -5.316 -1.7359999 0.31999999
-1.187 -5.3330002 -1.74 0.28
-1.164 -5.3070002 -1.73 0.28999999
-1.152 -5.296 -1.725 0.27000001
-1.143 -5.3330002 -1.737 0.28
-1.123 -5.3210001 -1.732 0.31
-1.104 -5.3119998 -1.727 0.28
-1.0880001 -5.3189998 -1.729 0.33000001
-1.068 -5.3080001 -1.723 0.31999999
-1.05 -5.3070002 -1.722 0.28999999
-1.043 -5.3150001 -1.724 0.33000001
-1.022 -5.2940001 -1.716 0.31999999
-1.0039999 -5.289 -1.7130001 0.30000001
-0.99199998 -5.3169999 -1.721 0.30000001
-0.97500002 -5.3200002 -1.721 0.28999999
-0.95999998 -5.3340001 -1.725 0.30000001
-0.93900001 -5.3109999 -1.716 0.30000001
-0.92799997 -5.2989998 -1.712 0.31999999
-0.912 -5.3039999 -1.712 0.30000001
-0.89499998 -5.3049998 -1.712 0.31999999
-0.87800002 -5.3080001 -1.712 0.33000001
-0.86199999 -5.3140001 -1.7130001 0.30000001
-0.85100001 -5.3540001 -1.726 0.28999999
-0.83999997 -5.3390002 -1.72 0.30000001
-0.82800001 -5.3699999 -1.73 0.34999999
-0.80699998 -5.3439999 -1.72 0.31
-0.792 -5.3600001 -1.725 0.31999999
-0.77399999 -5.3569999 -1.723 0.27000001
-0.75700003 -5.355 -1.721 0.27000001
-0.73699999 -5.3390002 -1.715 0.23999999
-0.72600001 -5.3210001 -1.709 0.31
-0.70599997 -5.2969999 -1.7 0.31
-0.69599998 -5.3460002 -1.716 0.25
-0.68099999 -5.3670001 -1.722 0.27000001
-0.66100001 -5.3410001 -1.712 0.30000001
-0.64399999 -5.3429999 -1.712 0.27000001
-0.62300003 -5.3109999 -1.701 0.25999999
-0.61500001 -5.316 -1.702 0.28
-0.59899998 -5.3239999 -1.704 0.33000001
-0.58200002 -5.322 -1.7029999 0.31
-0.56599998 -5.3309999 -1.705 0.31999999
-0.54900002 -5.3309999 -1.705 0.30000001
-0.53100002 -5.316 -1.699 0.34
-0.51800001 -5.355 -1.712 0.27000001
-0.509 -5.3520002 -1.711 0.25
-0.49000001 -5.335 -1.704 0.31
-0.47400001 -5.3379998 -1.705 0.31999999
-0.45699999 -5.336 -1.7029999 0.30000001
-0.43900001 -5.322 -1.698 0.30000001
-0.42300001 -5.3330002 -1.702 0.34
-0.414 -5.3239999 -1.698 0.30000001
-0.396 -5.3119998 -1.694 0.28999999
-0.37799999 -5.3060002 -1.691 0.27000001
-0.36199999 -5.3150001 -1.694 0.38
-0.345 -5.3119998 -1.692 0.30000001
-0.329 -5.3130002 -1.692 0.28999999
-0.31200001 -5.3060002 -1.6900001 0.28
-0.30199999 -5.2839999 -1.682 0.18000001
-0.28600001 -5.2969999 -1.686 0.30000001
-0.27000001 -5.3070002 -1.689 0.25
-0.255 -5.3530002 -1.705 0.25
-0.23899999 -5.3520002 -1.704 0.28999999
-0.222 -5.3660002 -1.709 0.28
-0.206 -5.368 -1.709 0.27000001
-0.19599999 -5.3520002 -1.7029999 0.28999999
-0.17900001 -5.3470001 -1.702 0.25999999
-0.162 -5.342 -1.7 0.28999999
-0.146 -5.3460002 -1.701 0.25
-0.12899999 -5.342 -1.7 0.27000001
-0.112 -5.3239999 -1.693 0.28
-0.094999999 -5.3150001 -1.6900001 0.31
-0.086000003 -5.322 -1.692 0.28999999
-0.07 -5.355 -1.7029999 0.23
-0.052999999 -5.323 -1.692 0.18000001
-0.035999998 -5.342 -1.699 0.28
-0.02 -5.336 -1.697 0.25
-0.003 -5.3270001 -1.694 0.25999999
0.014 -5.3189998 -1.691 0.18000001
0.022 -5.3379998 -1.698 0.28
0.039000001 -5.323 -1.692 0.25
0.056000002 -5.329 -1.694 0.17
0.072999999 -5.3379998 -1.698 0.25999999
0.089000002 -5.3189998 -1.691 0.23999999
0.106 -5.3049998 -1.687 0.25999999
0.114 -5.2800002 -1.678 0.25
0.13 -5.2670002 -1.674 0.28999999
0.146 -5.2509999 -1.669 0.30000001
0.162 -5.2449999 -1.6670001 0.28999999
0.17900001 -5.2459998 -1.6670001 0.31
0.19599999 -5.2589998 -1.6720001 0.34
0.212 -5.2550001 -1.671 0.34
0.22 -5.2519999 -1.67 0.31
0.236 -5.2290001 -1.6619999 0.31
0.25299999 -5.2389998 -1.666 0.27000001
0.27000001 -5.2540002 -1.671 0.30000001
0.287 -5.2600002 -1.674 0.33000001
0.30199999 -5.2290001 -1.663 0.30000001
0.31999999 -5.2659998 -1.676 0.34999999
0.33000001 -5.2859998 -1.683 0.30000001
0.34599999 -5.2779999 -1.681 0.34999999
0.36199999 -5.2670002 -1.678 0.28
0.38100001 -5.3039999 -1.691 0.25
0.396 -5.2839999 -1.684 0.18000001
0.41100001 -5.2600002 -1.676 0.30000001
0.42899999 -5.2680001 -1.6799999 0.25
0.43799999 -5.2789998 -1.683 0.25
0.45199999 -5.2470002 -1.673 0.30000001
0.47 -5.2639999 -1.6799999 0.25999999
0.48300001 -5.2249999 -1.6670001 0.22
0.50199997 -5.25 -1.676 0.28
0.51899999 -5.2579999 -1.679 0.19
0.53899997 -5.2859998 -1.689 0
0.54299998 -5.2480001 -1.676 0
0.56 -5.2480001 -1.677 0
0.57599998 -5.237 -1.674 0
2.579 -4.7319999 -1.715 0
2.599 -4.7340002 -1.719 0
2.6199999 -4.7379999 -1.723 0
2.6300001 -4.7199998 -1.72 0.029999999
2.6470001 -4.7160001 -1.721 0.029999999
2.6719999 -4.7259998 -1.729 0.029999999
2.684 -4.73 -1.732 0.07
2.7079999 -4.7379999 -1.738 0.14
2.7219999 -4.7280002 -1.738 0.039999999
2.7449999 -4.7329998 -1.743 0.07
2.757 -4.7189999 -1.7410001 0.039999999
2.7869999 -4.7360001 -1.751 0.07
2.793 -4.7129998 -1.745 0.039999999
2.7980001 -4.704 -1.743 0
2.8150001 -4.6999998 -1.745 0
2.8269999 -4.6859999 -1.743 0
2.8469999 -4.6849999 -1.747 0.07
2.8599999 -4.6750002 -1.7460001 0.039999999
2.872 -4.6609998 -1.744 0.07
2.8800001 -4.6399999 -1.74 0.039999999
2.895 -4.6490002 -1.745 0.07
2.902 -4.6269999 -1.74 0.039999999
2.918 -4.6209998 -1.7410001 0.07
2.9300001 -4.6069999 -1.739 0.039999999
2.9419999 -4.5949998 -1.738 0.07
2.9649999 -4.598 -1.743 0.15000001
2.974 -4.5809999 -1.74 0.039999999
2.9820001 -4.5780001 -1.74 0.07
2.9790001 -4.5409999 -1.729 0.039999999
3.0039999 -4.5479999 -1.7359999 0.07
3.0120001 -4.5289998 -1.732 0.039999999
3.03 -4.526 -1.734 0.07
3.04 -4.5100002 -1.732 0.039999999
3.04 -4.494 -1.727 0.039999999
3.0510001 -4.48 -1.725 0.029999999
3.0699999 -4.4780002 -1.729 0.029999999
3.0739999 -4.454 -1.723 0.039999999
3.092 -4.4489999 -1.725 0.039999999
3.1110001 -4.447 -1.728 0.029999999
3.1159999 -4.4250002 -1.723 0.029999999
3.1289999 -4.428 -1.726 0.039999999
3.1440001 -4.4200001 -1.727 0.029999999
3.158 -4.4099998 -1.727 0.039999999
3.1689999 -4.3969998 -1.725 0.039999999
3.1830001 -4.3870001 -1.725 0.039999999
3.1960001 -4.375 -1.725 0.029999999
3.2090001 -4.3649998 -1.725 0.029999999
3.214 -4.3569999 -1.723 0.029999999
3.2260001 -4.3449998 -1.723 0.029999999
3.2420001 -4.3379998 -1.724 0.029999999
3.2509999 -4.322 -1.721 0.029999999
3.26 -4.3060002 -1.719 0.029999999
3.2739999 -4.2950001 -1.719 0.029999999
3.2920001 -4.2909999 -1.721 0.029999999
3.2939999 -4.2800002 -1.719 0.039999999
3.3110001 -4.2740002 -1.721 0.039999999
3.323 -4.2620001 -1.72 0.029999999
3.3340001 -4.2490001 -1.719 0.029999999
3.3429999 -4.2319999 -1.716 0.029999999
3.3770001 -4.2480001 -1.728 0
3.3859999 -4.2319999 -1.725 0
3.3759999 -4.2059999 -1.716 0
3.392 -4.198 -1.7180001 0
3.4200001 -4.2069998 -1.726 0
3.4130001 -4.171 -1.715 0
3.444 -4.1820002 -1.725 0
3.4530001 -4.165 -1.722 0
3.447 -4.145 -1.716 0
3.46 -4.1339998 -1.716 0
3.4649999 -4.1129999 -1.711 0
3.48 -4.105 -1.712 0
3.5009999 -4.105 -1.717 0
3.516 -4.0949998 -1.7180001 0
3.5280001 -4.0840001 -1.7180001 0
3.5320001 -4.0760002 -1.716 0
3.5439999 -4.0630002 -1.716 0
3.5469999 -4.04 -1.711 0
3.5639999 -4.0349998 -1.7130001 0
3.582 -4.0289998 -1.716 0
3.5880001 -4.0110002 -1.712 0
3.598 -3.997 -1.711 0
3.6070001 -3.994 -1.712 0
3.622 -3.9860001 -1.714 0
3.6340001 -3.973 -1.7130001 0
3.6459999 -3.961 -1.7130001 0
3.6559999 -3.947 -1.712 0
3.671 -3.938 -1.7130001 0
3.6830001 -3.927 -1.7130001 0
3.6919999 -3.924 -1.714 0
3.7079999 -3.9159999 -1.716 0
3.711 -3.895 -1.712 0
3.717 -3.8759999 -1.709 0
3.7379999 -3.8740001 -1.7130001 0
3.747 -3.858 -1.711 0
3.7460001 -3.846 -1.7079999 0
3.7650001 -3.8410001 -1.711 0
3.777 -3.829 -1.711 0
3.7909999 -3.8199999 -1.712 0
3.803 -3.8080001 -1.712 0
3.806 -3.786 -1.7079999 0
3.826 -3.7820001 -1.712 0
3.8340001 -3.779 -1.7130001 0
3.8340001 -3.7550001 -1.707 0
3.842 -3.7390001 -1.705 0
3.8559999 -3.73 -1.707 0
3.8670001 -3.7160001 -1.706 0
3.8800001 -3.7049999 -1.707 0
3.9059999 -3.707 -1.714 0
3.8940001 -3.684 -1.705 0
3.9070001 -3.6730001 -1.706 0
3.931 -3.6730001 -1.712 0
3.9170001 -3.6359999 -1.7 0.02
3.927 -3.622 -1.699 0.039999999
3.941 -3.612 -1.7 0.15000001
3.9489999 -3.609 -1.702 0.2
3.9590001 -3.595 -1.701 0.18000001
3.9749999 -3.586 -1.7029999 0.17
3.97 -3.5599999 -1.696 0.039999999
3.987 -3.553 -1.698 0
4.0009999 -3.543 -1.7 0
4.0050001 -3.5239999 -1.696 0
4.0159998 -3.5220001 -1.699 0
4.027 -3.51 -1.699 0.029999999
4.033 -3.4920001 -1.696 0.14
4.0440001 -3.4790001 -1.696 0.11
4.0630002 -3.474 -1.7 0.18000001
4.073 -3.46 -1.7 0.12
4.0619998 -3.4289999 -1.6900001 0.2
4.0819998 -3.4349999 -1.696 0.11
4.0910001 -3.421 -1.696 0.18000001
4.099 -3.405 -1.694 0.12
4.1079998 -3.391 -1.694 0.19
4.1230001 -3.382 -1.696 0.11
4.119 -3.3570001 -1.689 0.18000001
4.1430001 -3.355 -1.6950001 0.11
4.138 -3.3399999 -1.691 0.2
4.1560001 -3.3329999 -1.694 0.11
4.1620002 -3.316 -1.692 0.19
4.1690001 -3.3010001 -1.691 0.11
4.1810002 -3.289 -1.691 0.20999999
4.1849999 -3.2709999 -1.689 0.16
4.2059999 -3.266 -1.693 0.25999999
4.2020001 -3.2520001 -1.689 0.18000001
4.224 -3.2479999 -1.694 0.25
4.2220001 -3.2260001 -1.689 0.18000001
4.2329998 -3.2130001 -1.689 0.23999999
4.2459998 -3.2019999 -1.691 0.19
4.25 -3.184 -1.688 0.12
4.2519999 -3.175 -1.687 0.20999999
4.263 -3.1630001 -1.687 0.16
4.2729998 -3.1489999 -1.687 0.25999999
4.2800002 -3.1329999 -1.686 0.2
4.2930002 -3.122 -1.687 0.12
4.2979999 -3.105 -1.6849999 0.2
4.309 -3.0929999 -1.686 0.11
4.316 -3.0869999 -1.687 0.20999999
4.3109999 -3.0639999 -1.681 0
4.336 -3.0610001 -1.687 0
4.335 -3.04 -1.683 0
4.349 -3.03 -1.6849999 0
4.3590002 -3.016 -1.6849999 0
4.3699999 -3.003 -1.6849999 0
4.3590002 -2.9860001 -1.679 0
4.3759999 -2.977 -1.682 0
4.3889999 -2.9660001 -1.683 0
4.3930001 -2.9489999 -1.682 0
4.4070001 -2.938 -1.683 0
4.4180002 -2.925 -1.684 0
4.4219999 -2.908 -1.682 0
4.427 -2.901 -1.682 0
4.441 -2.8900001 -1.684 0
4.447 -2.8740001 -1.683 0
4.4429998 -2.852 -1.678 0
4.46 -2.8429999 -1.681 0
4.4619999 -2.825 -1.678 0
4.4809999 -2.8169999 -1.682 0
4.4879999 -2.812 -1.683 0
4.4889998 -2.793 -1.6799999 0
4.5 -2.78 -1.681 0
4.5079999 -2.766 -1.681 0
4.5120001 -2.7490001 -1.679 0
4.5289998 -2.7390001 -1.682 0
4.5279999 -2.7190001 -1.678 0
4.5339999 -2.7130001 -1.679 0
4.54 -2.698 -1.678 0
4.5539999 -2.687 -1.6799999 0
4.5640001 -2.6730001 -1.681 0
4.5739999 -2.6600001 -1.682 0
4.5840001 -2.6459999 -1.682 0
4.5960002 -2.6440001 -1.6849999 0
4.6059999 -2.6300001 -1.686 0
4.619 -2.5999999 -1.6849999 0
4.6209998 -2.5810001 -1.682 0
4.6399999 -2.573 -1.687 0
4.6440001 -2.556 -1.6849999 0
4.6459999 -2.5480001 -1.684 0
4.6469998 -2.529 -1.682 0
4.6700001 -2.523 -1.687 0
4.665 -2.5009999 -1.682 0
4.6739998 -2.487 -1.683 0
4.6820002 -2.473 -1.683 0
4.6900001 -2.4579999 -1.683 0
4.6900001 -2.4489999 -1.682 0
4.6950002 -2.4319999 -1.6799999 0
4.7119999 -2.4230001 -1.684 0
4.7129998 -2.404 -1.682 0
4.7210002 -2.3900001 -1.682 0
4.7329998 -2.3770001 -1.683 0
4.7340002 -2.368 -1.682 0
4.7410002 -2.3529999 -1.682 0
4.7449999 -2.3369999 -1.681 0
4.757 -2.3239999 -1.683 0
4.7529998 -2.3039999 -1.678 0
4.7600002 -2.289 -1.678 0
4.7649999 -2.273 -1.678 0
4.7740002 -2.2679999 -1.6799999 0
4.7849998 -2.2539999 -1.681 0
4.7880001 -2.2379999 -1.6799999 0
4.7969999 -2.223 -1.6799999 0
4.8000002 -2.207 -1.679 0
4.8070002 -2.1919999 -1.679 0
4.8140001 -2.177 -1.679 0
4.8210001 -2.171 -1.6799999 0
4.8280001 -2.155 -1.6799999 0
4.8280001 -2.1370001 -1.678 0
4.8530002 -2.1300001 -1.6849999 0
4.8649998 -2.1170001 -1.687 0
4.8670001 -2.0999999 -1.6849999 0
4.882 -2.0880001 -1.688 0
4.882 -2.079 -1.687 0
4.8870001 -2.063 -1.686 0
4.8740001 -2.04 -1.679 0
4.908 -2.036 -1.689 0
4.8779998 -2.0050001 -1.676 0
4.914 -2.0020001 -1.687 0
4.9180002 -1.9859999 -1.686 0
4.9159999 -1.976 -1.684 0
4.9050002 -1.954 -1.678 0
4.9039998 -1.9349999 -1.675 0
4.9029999 -1.9170001 -1.673 0
4.9089999 -1.902 -1.673 0
4.9239998 -1.89 -1.676 0.059999999
4.9229999 -1.881 -1.674 0.14
4.9239998 -1.863 -1.673 0.23
4.9439998 -1.853 -1.678 0.23999999
4.9180002 -1.826 -1.666 0.18000001
4.9499998 -1.8200001 -1.676 0.28999999
4.9520001 -1.803 -1.674 0.25
4.947 -1.784 -1.671 0.25999999
4.948 -1.775 -1.67 0.22
4.973 -1.767 -1.677 0
4.947 -1.74 -1.665 0
4.9520001 -1.724 -1.665 0
4.9980001 -1.661 -1.673 0
4.9809999 -1.638 -1.665 0
4.9879999 -1.623 -1.666 0
4.9860001 -1.605 -1.663 0
4.9860001 -1.5880001 -1.6619999 0.029999999
5.007 -1.577 -1.6670001 0.029999999
5.0089998 -1.569 -1.6670001 0.039999999
5.0120001 -1.553 -1.6670001 0.029999999
5.0229998 -1.539 -1.669 0.07
5.0110002 -1.518 -1.663 0.039999999
5.0180001 -1.503 -1.663 0.039999999
5.033 -1.4910001 -1.6670001 0.039999999
5.0359998 -1.474 -1.6670001 0
5.0440001 -1.4680001 -1.669 0.07
5.0430002 -1.45 -1.6670001 0.039999999
5.0380001 -1.432 -1.663 0.039999999
5.0479999 -1.418 -1.665 0.039999999
5.0599999 -1.404 -1.668 0.07
5.0549998 -1.385 -1.665 0.039999999
5.0560002 -1.369 -1.663 0.039999999
5.0689998 -1.364 -1.6670001 0.039999999
5.0609999 -1.344 -1.663 0.039999999
5.079 -1.332 -1.668 0.07
5.0799999 -1.3150001 -1.6670001 0.039999999
5.0770001 -1.2970001 -1.664 0.029999999
5.0939999 -1.285 -1.669 0.07
5.0939999 -1.276 -1.668 0.039999999
5.085 -1.257 -1.663 0.029999999
5.1090002 -1.2460001 -1.671 0.07
5.1020002 -1.227 -1.6670001 0.039999999
5.1090002 -1.212 -1.668 0.039999999
5.1110001 -1.196 -1.6670001 0.029999999
5.1110001 -1.179 -1.666 0.039999999
5.1059999 -1.169 -1.663 0
5.1110001 -1.153 -1.664 0
5.1459999 -1.1440001 -1.675 0
5.119 -1.1210001 -1.664 0
5.1290002 -1.107 -1.6670001 0.029999999
5.1240001 -1.089 -1.663 0.029999999
5.1269999 -1.073 -1.663 0.039999999
5.131 -1.0650001 -1.664 0.029999999
5.132 -1.048 -1.663 0.029999999
5.1370001 -1.033 -1.664 0
5.1350002 -1.015 -1.6619999 0
5.1620002 -1.0039999 -1.671 0.07
5.1409998 -0.98299998 -1.6619999 0.039999999
5.1479998 -0.97600001 -1.664 0.029999999
5.1490002 -0.95999998 -1.663 0.029999999
5.152 -0.94300002 -1.663 0.029999999
5.152 -0.92699999 -1.6619999 0.029999999
5.151 -0.91000003 -1.661 0
5.1609998 -0.89499998 -1.663 0
5.164 -0.87900001 -1.663 0
5.1599998 -0.86900002 -1.6619999 0
5.1599998 -0.85299999 -1.661 0
5.1609998 -0.83600003 -1.66 0
5.177 -0.82200003 -1.665 0
5.1659999 -0.80400002 -1.66 0
5.1729999 -0.78799999 -1.6619999 0
5.1690001 -0.77100003 -1.66 0.059999999
5.1669998 -0.76300001 -1.658 0.039999999
5.1750002 -0.74699998 -1.66 0.07
5.1830001 -0.73199999 -1.6619999 0.039999999
5.198 -0.71700001 -1.6670001 0
5.197 -0.69999999 -1.665 0
5.1929998 -0.68300003 -1.663 0.090000004
5.1430001 -0.66000003 -1.645 0.14
5.1849999 -0.65700001 -1.66 0.28999999
5.1929998 -0.64200002 -1.6619999 0.25
5.191 -0.625 -1.66 0.23
5.184 -0.60799998 -1.6569999 0.25
5.1760001 -0.58999997 -1.654 0
5.1929998 -0.57599998 -1.659 0.13
5.1890001 -0.55900002 -1.6569999 0.25
5.1900001 -0.551 -1.6569999 0.25
5.1620002 -0.53100002 -1.647 0.18000001
5.191 -0.51800001 -1.656 0.31
5.1950002 -0.50199997 -1.6569999 0.23999999
5.1929998 -0.48500001 -1.656 0.050000001
5.1939998 -0.46900001 -1.656 0.039999999
5.1950002 -0.46000001 -1.656 0.039999999
5.1999998 -0.44400001 -1.6569999 0.07
5.2010002 -0.428 -1.6569999 0.039999999
5.2030001 -0.412 -1.6569999 0.07
5.1999998 -0.39500001 -1.656 0.039999999
5.211 -0.37900001 -1.659 0.07
5.1890001 -0.361 -1.651 0.039999999
5.2010002 -0.354 -1.655 0
5.2010002 -0.338 -1.654 0.059999999
5.2030001 -0.32100001 -1.655 0.039999999
5.204 -0.30500001 -1.655 0
5.1939998 -0.28799999 -1.651 0
5.2140002 -0.273 -1.658 0.059999999
5.2069998 -0.25600001 -1.655 0.039999999
5.2090001 -0.248 -1.656 0
5.2179999 -0.23199999 -1.658 0.059999999
5.2030001 -0.215 -1.653 0.039999999
5.217 -0.199 -1.658 0.07
5.21 -0.182 -1.655 0.039999999
5.2319999 -0.167 -1.6619999 0
5.211 -0.15000001 -1.655 0
5.2189999 -0.142 -1.658 0.059999999
5.2059999 -0.125 -1.653 0.039999999
5.2030001 -0.108 -1.652 0.039999999
5.224 -0.093000002 -1.659 0.07
5.2049999 -0.075999998 -1.653 0.039999999
5.2069998 -0.059 -1.653 0
5.217 -0.043000001 -1.656 0
5.2129998 -0.035 -1.655 0
5.2210002 -0.018999999 -1.658 0
5.223 -0.0020000001 -1.658 0.029999999
5.1069999 0.012 -1.6720001 0.27000001
5.1170001 0.021 -1.675 0.25
5.1209998 0.037 -1.676 0
5.0830002 0.052000001 -1.663 0.02
5.0960002 0.068000004 -1.668 0.13
5.1069999 0.085000001 -1.6720001 0.25
5.105 0.101 -1.671 0.25
5.1079998 0.117 -1.6720001 0.25999999
5.1040001 0.125 -1.671 0.27000001
5.1149998 0.141 -1.675 0.25999999
5.1090002 0.15700001 -1.673 0.25999999
5.1079998 0.17299999 -1.673 0.28999999
5.1170001 0.189 -1.676 0.25
5.0939999 0.205 -1.668 0.18000001
5.1079998 0.221 -1.674 0.30000001
5.112 0.229 -1.675 0.23999999
5.1030002 0.245 -1.6720001 0.28999999
5.1100001 0.26199999 -1.675 0.27000001
5.0999999 0.27700001 -1.6720001 0.28999999
5.1030002 0.29300001 -1.673 0.27000001
5.119 0.31 -1.679 0.25
5.105 0.31799999 -1.674 0.22
5.1100001 0.33399999 -1.676 0.27000001
5.092 0.34900001 -1.67 0.23
5.1059999 0.366 -1.676 0.28
5.1030002 0.382 -1.675 0.28
5.1030002 0.398 -1.676 0.28
5.0929999 0.41299999 -1.6720001 0.28999999
5.1009998 0.42199999 -1.676 0.27000001
5.1090002 0.43900001 -1.679 0.28
5.1149998 0.456 -1.681 0.28
5.1009998 0.47099999 -1.677 0.31
5.0809999 0.48500001 -1.67 0.27000001
5.0869999 0.50099999 -1.673 0.28999999
5.0830002 0.51700002 -1.6720001 0.27000001
5.0900002 0.52600002 -1.675 0.27000001
5.0809999 0.54100001 -1.6720001 0.27000001
5.0770001 0.55699998 -1.6720001 0.27000001
5.079 0.57300001 -1.673 0.25999999
5.079 0.58899999 -1.674 0.25999999
5.073 0.60500002 -1.6720001 0.31
5.0749998 0.62099999 -1.674 0.28999999
5.072 0.62900001 -1.673 0.25999999
5.0760002 0.64600003 -1.675 0.28999999
5.0630002 0.66000003 -1.671 0.30000001
5.0619998 0.676 -1.6720001 0.28999999
5.0619998 0.69300002 -1.6720001 0.28
5.0489998 0.70700002 -1.668 0.28999999
5.0599999 0.72500002 -1.673 0.27000001
5.0619998 0.73299998 -1.674 0.28
5.0539999 0.74800003 -1.6720001 0.30000001
5.0430002 0.76300001 -1.669 0.25999999
5.0380001 0.778 -1.668 0.27000001
5.0489998 0.796 -1.673 0.23
5.0310001 0.80900002 -1.668 0.30000001
5.0469999 0.81999999 -1.674 0.25999999
5.0349998 0.83399999 -1.67 0.27000001
5.0359998 0.85100001 -1.6720001 0.27000001
5.0320001 0.866 -1.671 0.25999999
5.0159998 0.88 -1.666 0.18000001
5.0300002 0.89899999 -1.6720001 0.28999999
5.0139999 0.912 -1.668 0.23999999
5.0120001 0.92000002 -1.668 0.27000001
5.006 0.935 -1.666 0.25999999
5.0120001 0.95200002 -1.67 0.27000001
4.9980001 0.96600002 -1.666 0.25
4.9949999 0.98199999 -1.666 0.31999999
5.0009999 0.99900001 -1.669 0.31999999
4.994 1.0140001 -1.668 0.34
4.994 1.022 -1.668 0.33000001
4.9949999 1.039 -1.67 0.33000001
4.9790001 1.052 -1.665 0.28999999
4.9920001 1.071 -1.671 0.38999999
4.9829998 1.086 -1.669 0.36000001
4.974 1.1 -1.6670001 0.2
4.974 1.1160001 -1.668 0.25999999
4.98 1.126 -1.671 0.23
4.96 1.138 -1.665 0.19
4.973 1.1569999 -1.671 0.27000001
4.9710002 1.173 -1.6720001 0.23999999
4.9640002 1.188 -1.67 0.2
4.973 1.207 -1.675 0.25
4.967 1.222 -1.674 0.25
4.9559999 1.227 -1.671 0.2
4.948 1.242 -1.67 0.25
4.9549999 1.26 -1.674 0.19
4.9499998 1.275 -1.673 0.25
4.947 1.291 -1.674 0.20999999
4.9510002 1.309 -1.676 0.12
4.9349999 1.322 -1.6720001 0.20999999
4.9239998 1.327 -1.669 0.18000001
4.9439998 1.349 -1.678 0.25999999
4.9289999 1.3609999 -1.674 0.20999999
4.9169998 1.375 -1.671 0.20999999
4.934 1.396 -1.679 0.25
4.9159999 1.408 -1.674 0.20999999
4.915 1.416 -1.674 0.12
4.9200001 1.434 -1.678 0.20999999
4.8990002 1.4450001 -1.6720001 0.2
4.9050002 1.4630001 -1.676 0.25
4.8920002 1.476 -1.6720001 0.18000001
4.8920002 1.493 -1.674 0.25
4.8930001 1.51 -1.676 0.18000001
4.9029999 1.522 -1.681 0.25
4.8790002 1.531 -1.674 0.19
4.8850002 1.55 -1.678 0.23999999
4.881 1.5650001 -1.678 0.2
4.869 1.5779999 -1.676 0.23
4.8639998 1.594 -1.676 0.23999999
4.8660002 1.6109999 -1.678 0.11
4.8590002 1.617 -1.676 0.18000001
4.8499999 1.631 -1.675 0.22
4.8470001 1.647 -1.676 0.19
4.8429999 1.663 -1.676 0.22
4.8379998 1.678 -1.676 0.19
4.829 1.692 -1.675 0.22
4.8379998 1.712 -1.6799999 0.2
4.823 1.715 -1.676 0.12
4.8119998 1.729 -1.674 0.2
4.8169999 1.748 -1.678 0.1
4.79 1.755 -1.67 0.2
4.796 1.774 -1.674 0.11
4.802 1.794 -1.678 0.18000001
4.7870002 1.7970001 -1.674 0.11
4.7740002 1.809 -1.671 0.19
4.776 1.827 -1.674 0.2
4.77 1.842 -1.674 0.18000001
4.7709999 1.859 -1.676 0.23999999
4.7529998 1.869 -1.6720001 0.1
4.77 1.893 -1.6799999 0.18000001
4.7529998 1.895 -1.675 0.20999999
4.7449999 1.91 -1.674 0.1
4.7389998 1.924 -1.674 0.18000001
4.724 1.936 -1.671 0
4.717 1.95 -1.67 0
4.6999998 1.96 -1.666 0
4.6820002 1.97 -1.6619999 0
4.6820002 1.979 -1.663 0
4.6690001 1.99 -1.66 0
4.6760001 2.0109999 -1.666 0.02
4.6890001 2.0339999 -1.673 0.15000001
4.6789999 2.0469999 -1.6720001 0.11
4.6739998 2.063 -1.6720001 0.2
4.664 2.0669999 -1.67 0.11
4.6630001 2.0840001 -1.6720001 0.18000001
4.6560001 2.099 -1.6720001 0.20999999
4.6479998 2.112 -1.671 0.1
4.6329999 2.1229999 -1.668 0.18000001
4.6300001 2.1389999 -1.669 0.11
4.618 2.151 -1.6670001 0.19
4.631 2.1670001 -1.674 0.11
4.619 2.1789999 -1.6720001 0.2
4.6040001 2.1889999 -1.668 0.11
4.592 2.201 -1.666 0.2
4.5939999 2.22 -1.67 0.11
4.5830002 2.2320001 -1.668 0.2
4.5780001 2.2479999 -1.669 0.11
4.5739999 2.2550001 -1.669 0.2
4.5710001 2.2709999 -1.67 0.11
4.5619998 2.2839999 -1.67 0.18000001
4.553 2.2980001 -1.669 0.23
4.5539999 2.316 -1.6720001 0.19
4.54 2.3269999 -1.67 0.23
4.5279999 2.339 -1.668 0.1
4.5209999 2.3440001 -1.666 0.20999999
4.5219998 2.3629999 -1.67 0.11
4.5079999 2.3729999 -1.6670001 0.18000001
4.5029998 2.3889999 -1.668 0.22
4.4889998 2.4000001 -1.666 0.19
4.487 2.4170001 -1.668 0.23
4.487 2.4349999 -1.671 0.2
4.4720001 2.4360001 -1.666 0.20999999
4.4660001 2.451 -1.6670001 0.2
4.4629998 2.4679999 -1.669 0.12
4.4450002 2.4760001 -1.665 0.2
4.447 2.4960001 -1.669 0.11
4.4349999 2.507 -1.6670001 0.18000001
4.4369998 2.5179999 -1.67 0.12
4.4310002 2.5320001 -1.67 0.18000001
4.4200001 2.5439999 -1.669 0.12
4.4089999 2.556 -1.668 0.18000001
4.4000001 2.5699999 -1.668 0.22
4.3940001 2.585 -1.668 0.18000001
4.3839998 2.598 -1.668 0.23999999
4.3800001 2.605 -1.668 0.19
4.382 2.6240001 -1.6720001 0.12
4.369 2.635 -1.67 0.18000001
4.368 2.654 -1.673 0.23
4.362 2.6689999 -1.674 0.19
4.3400002 2.674 -1.668 0.20999999
4.335 2.6900001 -1.67 0.2
4.3319998 2.698 -1.67 0.12
4.3179998 2.707 -1.668 0.2
4.3119998 2.723 -1.669 0.11
4.3039999 2.7360001 -1.669 0.2
4.3000002 2.753 -1.671 0.2
4.277 2.757 -1.665 0.18000001
4.2820001 2.78 -1.671 0.23999999
4.2839999 2.7909999 -1.674 0.2
4.2680001 2.799 -1.67 0.22
4.2529998 2.8080001 -1.668 0.2
4.25 2.826 -1.67 0.20999999
4.25 2.845 -1.674 0.18000001
4.2290001 2.8499999 -1.669 0.050000001
4.2090001 2.8559999 -1.664 0.18000001
4.2259998 2.878 -1.674 0.11
4.1960001 2.8759999 -1.664 0.18000001
4.204 2.901 -1.6720001 0.11
4.2010002 2.918 -1.674 0.2
4.1880002 2.9289999 -1.673 0.11
4.1700001 2.9360001 -1.669 0.2
4.1810002 2.9630001 -1.678 0.11
4.151 2.9519999 -1.6670001 0.18000001
4.151 2.9719999 -1.671 0.11
4.1599998 2.9979999 -1.679 0.18000001
4.1300001 2.9960001 -1.67 0.20999999
4.1220002 3.01 -1.67 0.1
4.112 3.023 -1.67 0.19
4.1100001 3.0409999 -1.674 0.11
4.098 3.0420001 -1.67 0.18000001
4.0970001 3.062 -1.674 0.11
4.0700002 3.0610001 -1.666 0.2
4.0710001 3.082 -1.671 0.11
4.0669999 3.099 -1.674 0.18000001
4.0599999 3.1140001 -1.675 0.11
4.0430002 3.1110001 -1.67 0.2
4.0450001 3.1329999 -1.675 0.20999999
4.0349998 3.1459999 -1.675 0.19
4.0180001 3.1530001 -1.6720001 0.22
4.0139999 3.1700001 -1.674 0.1
3.994 3.175 -1.67 0.19
3.984 3.187 -1.67 0.20999999
3.9909999 3.2030001 -1.675 0.1
3.973 3.2090001 -1.6720001 0.19
3.9630001 3.2219999 -1.6720001 0.11
3.9649999 3.244 -1.677 0.18000001
3.944 3.2479999 -1.6720001 0.20999999
3.924 3.2520001 -1.668 0.16
3.938 3.2850001 -1.679 0.23999999
3.9170001 3.2780001 -1.6720001 0.19
3.905 3.289 -1.671 0.050000001
3.895 3.3010001 -1.671 0.17
3.8859999 3.3139999 -1.6720001 0.19
3.8800001 3.3299999 -1.674 0.19
3.869 3.342 -1.674 0.050000001
3.848 3.345 -1.668 0.07
3.8540001 3.3610001 -1.674 0.16
3.8429999 3.3729999 -1.674 0.050000001
3.8139999 3.368 -1.665 0.17
3.823 3.398 -1.674 0.20999999
3.8180001 3.415 -1.677 0.090000004
3.7950001 3.4159999 -1.671 0.18000001
3.7809999 3.425 -1.67 0.050000001
3.783 3.437 -1.673 0.18000001
3.7690001 3.447 -1.6720001 0.2
3.76 3.46 -1.6720001 0.1
3.7390001 3.4619999 -1.668 0.18000001
3.743 3.4879999 -1.675 0.11
3.727 3.4949999 -1.6720001 0.2
3.717 3.5079999 -1.673 0.11
3.7149999 3.516 -1.674 0.18000001
3.71 3.5350001 -1.678 0.20999999
3.694 3.5409999 -1.675 0.1
3.6789999 3.549 -1.673 0.17
3.6689999 3.5610001 -1.674 0.20999999
3.655 3.5699999 -1.6720001 0.090000004
3.6459999 3.5840001 -1.674 0.16
3.645 3.5940001 -1.676 0.11
3.6229999 3.595 -1.67 0.18000001
3.618 3.6129999 -1.674 0.11
3.605 3.6229999 -1.673 0.19
3.602 3.642 -1.677 0.2
3.5840001 3.6470001 -1.674 0.16
3.5799999 3.6659999 -1.678 0.23
3.5710001 3.668 -1.676 0.20999999
3.562 3.6819999 -1.677 0.22
3.55 3.6930001 -1.677 0.18000001
3.5380001 3.704 -1.677 0.23
3.5139999 3.701 -1.67 0.17
3.5120001 3.723 -1.676 0.23
3.5009999 3.723 -1.673 0.18000001
3.5039999 3.75 -1.6799999 0.23
3.487 3.7550001 -1.678 0.1
3.4679999 3.7579999 -1.674 0.2
3.4619999 3.776 -1.677 0.20999999
3.4489999 3.7850001 -1.676 0.18000001
3.441 3.8 -1.678 0.13
3.427 3.7969999 -1.674 0.19
3.4130001 3.8050001 -1.673 0.11
3.3959999 3.8099999 -1.67 0.2
3.3959999 3.835 -1.677 0.11
3.3870001 3.848 -1.678 0.18000001
3.3670001 3.8499999 -1.674 0.20999999
3.3599999 3.8670001 -1.677 0.2
3.3510001 3.869 -1.676 0.20999999
3.3329999 3.872 -1.6720001 0.16
3.3340001 3.8989999 -1.679 0.25999999
3.3150001 3.9000001 -1.676 0.18000001
3.3069999 3.9170001 -1.678 0.23999999
3.293 3.924 -1.677 0.18000001
3.283 3.937 -1.678 0.25
3.273 3.938 -1.676 0.19
3.2639999 3.9530001 -1.678 0.25
3.2409999 3.95 -1.6720001 0.22
3.2309999 3.9630001 -1.674 0.2
3.2279999 3.9849999 -1.679 0.25
3.2060001 3.983 -1.674 0.22
3.197 3.9979999 -1.676 0.2
3.194 4.007 -1.678 0.23999999
3.1849999 4.0219998 -1.679 0.20999999
3.1719999 4.0320001 -1.679 0.12
3.155 4.0359998 -1.677 0.2
3.131 4.0300002 -1.67 0.18000001
3.1340001 4.0609999 -1.679 0.27000001
3.1140001 4.0609999 -1.675 0.22
3.1070001 4.0650001 -1.675 0.20999999
3.1010001 4.0840001 -1.679 0.27000001
3.086 4.0910001 -1.678 0.25
3.0710001 4.098 -1.676 0.19
3.0610001 4.112 -1.678 0.28
3.0450001 4.1170001 -1.676 0.23
3.0380001 4.1339998 -1.679 0.19
3.036 4.145 -1.682 0.27000001
3.0150001 4.1440001 -1.678 0.23999999
2.9990001 4.1490002 -1.676 0.18000001
2.994 4.1700001 -1.681 0.28
2.9790001 4.177 -1.679 0.25
2.9679999 4.1890001 -1.681 0.25
2.9489999 4.191 -1.678 0.22
2.948 4.2030001 -1.681 0.27000001
2.9300001 4.204 -1.678 0.23
2.9219999 4.2210002 -1.681 0.25
2.902 4.2210002 -1.677 0.17
2.8940001 4.2379999 -1.6799999 0.28999999
2.881 4.2470002 -1.6799999 0.25
2.865 4.2529998 -1.679 0.25999999
2.8610001 4.2610002 -1.6799999 0.25999999
2.8499999 4.2740002 -1.682 0.25999999
2.8329999 4.277 -1.679 0.25
2.819 4.2859998 -1.679 0.2
2.809 4.2989998 -1.681 0.28
2.796 4.3080001 -1.681 0.22
2.7739999 4.3039999 -1.676 0.17
2.779 4.3280001 -1.684 0.28999999
2.7590001 4.3249998 -1.679 0.25
2.7409999 4.3280001 -1.677 0.16
2.74 4.3569999 -1.6849999 0.28999999
2.724 4.3610001 -1.683 0.25
2.711 4.3709998 -1.684 0.27000001
2.6900001 4.368 -1.679 0.25999999
2.6860001 4.3769999 -1.681 0.27000001
2.6730001 4.3860002 -1.681 0.28
2.6589999 4.3940001 -1.681 0.27000001
2.6489999 4.4089999 -1.684 0.25999999
2.638 4.4219999 -1.686 0.25
2.618 4.4200001 -1.682 0.16
2.6170001 4.434 -1.686 0.31
2.599 4.4359999 -1.683 0.25
2.589 4.4510002 -1.686 0.27000001
2.5739999 4.4569998 -1.6849999 0.28
2.5610001 4.467 -1.686 0.27000001
2.5439999 4.4699998 -1.684 0.25
2.5350001 4.4860001 -1.687 0.27000001
2.527 4.4879999 -1.687 0.27000001
2.5090001 4.4899998 -1.684 0.25999999
2.5 4.5079999 -1.688 0.28
2.477 4.4990001 -1.681 0.17
2.477 4.5320001 -1.691 0.28999999
2.457 4.5289998 -1.687 0.23999999
2.451 4.552 -1.693 0.23999999
2.4360001 4.5409999 -1.687 0.30000001
2.4200001 4.5469999 -1.687 0.28999999
2.4089999 4.559 -1.689 0.27000001
2.3940001 4.5650001 -1.688 0.28
2.3829999 4.5809999 -1.691 0.23999999
2.3659999 4.5840001 -1.689 0.30000001
2.3559999 4.599 -1.693 0.25999999
2.3570001 4.618 -1.699 0.28
2.336 4.6139998 -1.694 0.27000001
2.3310001 4.6399999 -1.701 0.28999999
2.306 4.6269999 -1.693 0.28
2.2909999 4.632 -1.693 0.30000001
2.286 4.6599998 -1.701 0.25
2.2590001 4.6399999 -1.6900001 0.30000001
2.253 4.6469998 -1.691 0.28999999
2.2420001 4.6609998 -1.694 0.28999999
2.2249999 4.6620002 -1.692 0.28
2.2160001 4.6830001 -1.697 0.27000001
2.2019999 4.6900001 -1.697 0.31
2.1830001 4.6880002 -1.694 0.28
2.171 4.6999998 -1.696 0.25
2.1719999 4.724 -1.704 0.30000001
2.151 4.717 -1.699 0.28
2.1340001 4.7189999 -1.697 0.25
2.1259999 4.7389998 -1.702 0.31
2.1070001 4.737 -1.699 0.27000001
2.089 4.737 -1.696 0.28
2.082 4.763 -1.7029999 0.28999999
2.0680001 4.75 -1.697 0.28999999
2.053 4.757 -1.697 0.28999999
2.0420001 4.7719998 -1.701 0.30000001
2.023 4.77 -1.697 0.28
2.0109999 4.783 -1.7 0.28999999
2 4.7979999 -1.7029999 0.28999999
1.978 4.789 -1.697 0.28
1.971 4.7930002 -1.698 0.28999999
1.966 4.8239999 -1.707 0.31
1.9450001 4.816 -1.702 0.27000001
1.928 4.8150001 -1.699 0.28
1.919 4.8390002 -1.706 0.31999999
1.899 4.8330002 -1.701 0.28999999
1.887 4.8460002 -1.704 0.28999999
1.883 4.8590002 -1.7079999 0.28999999
1.865 4.8579998 -1.705 0.28999999
1.851 4.8660002 -1.706 0.28999999
1.836 4.8730001 -1.707 0.30000001
1.817 4.8699999 -1.7029999 0.27000001
1.803 4.8790002 -1.705 0.27000001
1.789 4.8870001 -1.705 0.28999999
1.781 4.8889999 -1.705 0.30000001
1.766 4.8969998 -1.706 0.28999999
1.752 4.9060001 -1.707 0.27000001
1.735 4.9060001 -1.705 0.28
1.719 4.9109998 -1.705 0.28
1.706 4.9219999 -1.707 0.28999999
1.6900001 4.927 -1.707 0.31
1.6799999 4.9229999 -1.705 0.30000001
1.668 4.9369998 -1.7079999 0.25999999
1.653 4.9439998 -1.709 0.28999999
1.64 4.9569998 -1.711 0.30000001
1.625 4.9629998 -1.712 0.30000001
1.607 4.9629998 -1.71 0.28999999
1.5930001 4.9720001 -1.711 0.28999999
1.586 4.9759998 -1.712 0.28999999
1.568 4.974 -1.709 0.28999999
1.552 4.9770002 -1.709 0.27000001
1.536 4.9840002 -1.709 0.31
1.523 4.9970002 -1.7130001 0.28999999
1.51 5.0089998 -1.715 0.30000001
1.494 5.0120001 -1.715 0.28
1.484 5.007 -1.712 0.31999999
1.47 5.0190001 -1.715 0.25999999
1.454 5.0240002 -1.715 0.30000001
1.441 5.039 -1.719 0.30000001
1.424 5.0370002 -1.716 0.28
1.405 5.0300002 -1.712 0.28999999
1.391 5.0440001 -1.715 0.28999999
1.385 5.053 -1.7180001 0.28
1.369 5.0560002 -1.717 0.30000001
1.355 5.0669999 -1.72 0.28999999
1.3380001 5.066 -1.7180001 0.28
1.323 5.0739999 -1.719 0.28
1.308 5.0819998 -1.721 0.28999999
1.2920001 5.086 -1.721 0.28999999
1.285 5.0910001 -1.722 0.28999999
1.267 5.0879998 -1.719 0.31
1.252 5.0970001 -1.721 0.27000001
1.237 5.1030002 -1.722 0.28999999
1.219 5.1020002 -1.72 0.28
1.204 5.1090002 -1.721 0.28999999
1.1900001 5.1199999 -1.724 0.25999999
1.183 5.1279998 -1.726 0.28999999
1.165 5.1220002 -1.723 0.30000001
1.151 5.1350002 -1.726 0.28999999
1.135 5.1420002 -1.727 0.25999999
1.12 5.1490002 -1.728 0.28999999
1.102 5.1420002 -1.724 0.31999999
1.0880001 5.1560001 -1.728 0.25999999
1.0829999 5.1729999 -1.734 0.28
